72.9854166666667,-2305,-2308,-2309,-2313,-2312,-2318,-2323,-2326,-2329,-2332,-2339,-2343,-2349,-2355,-2365,-2376,-2385,-2395,-2404,-2414,-2415,-2414,-2412,-2414,-2414,-2416,-2415,-2416,-2413,-2410,-2396,-2378,-2367,-2362,-2357,-2348,-2337,-2339,-2338,-2339,-2338,-2336,-2334,-2335,-2338,-2334,-2329,-2318,-2305,-2287,-2282,-2279,-2280,-2284,-2284,-2295,-2300,-2297,-2296,-2299,-2291,-2288,-2285,-2281,-2273,-2259,-2259,-2249,-2231,-2297,-2298,-2298,-2298,-2296,-2293,-2292,-2292,-2303,-2306,-2319,-2329,-2342,-2356,-2371,-2382,-2396,-2420,-2431,-2449,-2464,-2466,-2494,-2502,-2524,-2544,-2555,-2584,-2619,-2636,-2628,-2645,-2655,-2662,-2668,-2673,-2681,-2689,-2696,-2709,-2713,-2720,-2724,-2726,-2726,-2730,-2733,-2741,-2742,-2745,-2752,-2758,-2757,-2762,-2763,-2767,-2774,-2777,-2782,-2787,-2791,-2794,-2797,-2799,-2801,-2802,-2803,-2803,-2804,-2805,-2807,-2809,-2807,-2805,-2806,-2805,-2821,-2818,-2818,-2812,-2818,-2817,-2819,-2822,-2824,-2830,-2833,-2833,-2848,-2857,-2847,-2853,-2855,-2856,-2855,-2860,-2855,-2859,-2862,-2861,-2858,-2858,-2861,-2862,-2862,-2864,-2864,-2870,-2874,-2875,-2883,-2883,-2885,-2887,-2884,-2889,-2891,-2889,-2890,-2893,-2895,-2896,-2901,-2904,-2903,-2909,-2907,-2900,-2912,-2905,-2905,-2905,-2908,-2911,-2911,-2913,-2910,-2912,-2912,-2916,-2920,-2987,-2985,-2983,-2944,-2927,-2922,-2922,-2922,-2922,-2925,-2929,-2931,-2930,-2928,-2929,-2935,-2936,-2940,-2937,-2939,-2940,-2940,-2942,-2942,-2945,-2947,-2948,-2951,-2952,-2954,-2956,-2955,-2956,-2957,-2957,-2957,-2962,-2960,-2959,-2956,-2953,-2954,-2954,-2959,-2961,-2962,-2964,-2967,-2970,-2972,-2974,-2975,-2977,-2980,-2979,-2982,-2984,-2987,-2991,-2994,-2998,-2999,-3001,-3002,-3003,-3007,-3009,-3012,-3016,-3018,-3021,-3023,-3027,-3026,-3029,-3028,-3031,-3033,-3036,-3040,-3043,-3046,-3048,-3054,-3058,-3062,-3063,-3062,-3065,-3069,-3082,-3079,-3082,-3084,-3084,-3090,-3090,-3094,-3095,-3114,-3131,-3132,-3133,-3131,-3132,-3132,-3136,-3142,-3144,-3148,-3150,-3150,-3152,-3153,-3157,-3157,-3160,-3162,-3167,-3173,-3175,-3181,-3182,-3184,-3187,-3190,-3191,-3195,-3197,-3199,-3198,-3196,-3196,-3197,-3198,-3196,-3195,-3197,-3199,-3199,-3199,-3201,-3204,-3206,-3205,-3203,-3206,-3208,-3210,-3210,-3210,-3209,-3210,-3210,-3210,-3210,-3210,-3215,-3218,-3215,-3219,-3218,-3219,-3216,-3215,-3218,-3229,-3236,-3241,-3245,-3246,-3248,-3248,-3250,-3251,-3251,-3249,-3250,-3255,-3255,-3259,-3266,-3281,-3283,-3280,-3283,-3288,-3291,-3294,-3294,-3294,-3294,-3298,-3300,-3302,-3303,-3305,-3307,-3305,-3309,-3311,-3310,-3317,-3316,-3322,-3316,-3317,-3316,-3314,-3316,-3316,-3322,-3327,-3333,-3332,-3332,-3333,-3334,-3335,-3338,-3342,-3345,-3346,-3349,-3351,-3353,-3355,-3357,-3359,-3363,-3365,-3369,-3370,-3372,-3377,-3379,-3383,-3386,-3389,-3395,-3396,-3398,-3401,-3404,-3408,-3410,-3416,-3431,-3436,-3427,-3428,-3427,-3426,-3440,-3438,-3445,-3443,-3447,-3445,-3444,-3443,-3447,-3448,-3453,-3458,-3461,-3461,-3454,-3463,-3462
72.9895833333333,-2318,-2324,-2326,-2326,-2330,-2330,-2334,-2335,-2337,-2337,-2340,-2343,-2345,-2349,-2355,-2364,-2370,-2382,-2404,-2413,-2422,-2425,-2428,-2428,-2428,-2429,-2430,-2433,-2434,-2434,-2435,-2429,-2413,-2404,-2396,-2381,-2379,-2375,-2376,-2372,-2370,-2369,-2365,-2371,-2370,-2370,-2365,-2360,-2358,-2356,-2348,-2350,-2352,-2350,-2356,-2357,-2354,-2357,-2334,-2338,-2346,-2343,-2336,-2336,-2337,-2348,-2341,-2324,-2332,-2332,-2340,-2344,-2340,-2333,-2336,-2334,-2328,-2331,-2328,-2333,-2344,-2358,-2374,-2386,-2395,-2403,-2394,-2444,-2446,-2446,-2445,-2453,-2458,-2463,-2477,-2503,-2482,-2489,-2509,-2533,-2566,-2572,-2599,-2629,-2664,-2671,-2678,-2683,-2692,-2700,-2712,-2721,-2727,-2733,-2743,-2743,-2745,-2744,-2749,-2751,-2757,-2760,-2766,-2769,-2773,-2778,-2778,-2784,-2789,-2796,-2797,-2801,-2810,-2807,-2809,-2810,-2808,-2812,-2815,-2815,-2816,-2815,-2817,-2815,-2815,-2814,-2828,-2832,-2826,-2827,-2829,-2826,-2833,-2831,-2831,-2832,-2839,-2866,-2853,-2859,-2860,-2859,-2859,-2860,-2860,-2867,-2865,-2869,-2870,-2874,-2872,-2872,-2870,-2875,-2876,-2873,-2873,-2877,-2883,-2888,-2891,-2890,-2895,-2899,-2895,-2894,-2894,-2903,-2905,-2906,-2910,-2908,-2908,-2914,-2917,-2917,-2915,-2917,-2920,-2915,-2918,-2917,-2920,-2921,-2925,-2924,-2929,-2932,-2933,-2935,-2935,-2934,-2941,-2940,-2939,-2939,-2937,-2937,-2937,-2938,-2938,-2938,-2936,-2940,-2942,-2942,-2944,-2945,-2947,-2950,-2951,-2951,-2949,-2951,-2951,-2953,-2955,-2958,-2961,-2963,-2966,-2967,-2968,-2968,-2967,-2970,-2970,-2969,-2968,-2969,-2968,-2969,-2969,-2967,-2967,-2970,-2972,-2977,-2979,-2982,-2983,-2985,-2987,-2988,-2990,-2991,-2992,-2994,-2995,-2999,-3001,-3003,-3006,-3008,-3009,-3011,-3013,-3014,-3017,-3022,-3027,-3031,-3034,-3036,-3035,-3037,-3040,-3044,-3044,-3048,-3046,-3049,-3050,-3051,-3052,-3061,-3062,-3070,-3074,-3078,-3079,-3084,-3084,-3088,-3108,-3126,-3123,-3109,-3121,-3125,-3131,-3135,-3137,-3138,-3139,-3139,-3142,-3145,-3147,-3148,-3148,-3152,-3155,-3155,-3158,-3160,-3162,-3163,-3164,-3167,-3168,-3171,-3175,-3179,-3183,-3185,-3185,-3186,-3189,-3197,-3202,-3204,-3204,-3204,-3203,-3201,-3202,-3202,-3205,-3205,-3207,-3209,-3210,-3212,-3213,-3212,-3213,-3213,-3219,-3222,-3221,-3221,-3222,-3220,-3218,-3224,-3225,-3228,-3230,-3234,-3232,-3233,-3237,-3240,-3239,-3243,-3241,-3245,-3244,-3249,-3252,-3252,-3255,-3258,-3256,-3252,-3251,-3252,-3261,-3267,-3274,-3281,-3289,-3287,-3285,-3280,-3289,-3294,-3298,-3299,-3300,-3301,-3303,-3304,-3305,-3306,-3306,-3309,-3313,-3315,-3321,-3322,-3323,-3324,-3324,-3325,-3325,-3323,-3323,-3317,-3318,-3324,-3335,-3338,-3335,-3331,-3333,-3332,-3328,-3325,-3332,-3347,-3352,-3358,-3360,-3363,-3364,-3366,-3365,-3368,-3369,-3372,-3374,-3379,-3382,-3384,-3387,-3390,-3393,-3398,-3400,-3404,-3406,-3410,-3414,-3417,-3421,-3423,-3426,-3430,-3429,-3432,-3430,-3448,-3450,-3450,-3448,-3449,-3448,-3446,-3450,-3462,-3464,-3466,-3463,-3462,-3464,-3470,-3473,-3472
72.99375,-2323,-2331,-2333,-2335,-2338,-2342,-2344,-2349,-2351,-2353,-2354,-2353,-2355,-2358,-2361,-2363,-2366,-2369,-2374,-2382,-2400,-2424,-2435,-2442,-2444,-2446,-2446,-2449,-2452,-2452,-2452,-2452,-2452,-2452,-2450,-2436,-2424,-2420,-2403,-2398,-2395,-2394,-2397,-2402,-2400,-2401,-2391,-2389,-2388,-2390,-2390,-2395,-2394,-2404,-2407,-2406,-2408,-2404,-2398,-2403,-2393,-2376,-2391,-2392,-2413,-2410,-2429,-2424,-2424,-2382,-2466,-2370,-2369,-2371,-2367,-2367,-2367,-2362,-2362,-2359,-2368,-2391,-2404,-2419,-2425,-2433,-2438,-2434,-2439,-2442,-2448,-2485,-2456,-2461,-2464,-2466,-2471,-2474,-2478,-2487,-2493,-2510,-2530,-2552,-2580,-2614,-2633,-2652,-2677,-2693,-2703,-2722,-2732,-2741,-2746,-2750,-2756,-2755,-2759,-2761,-2762,-2770,-2772,-2774,-2777,-2783,-2797,-2801,-2805,-2808,-2808,-2808,-2810,-2814,-2820,-2824,-2822,-2820,-2821,-2834,-2831,-2829,-2826,-2822,-2821,-2823,-2824,-2823,-2836,-2836,-2840,-2837,-2839,-2838,-2839,-2841,-2850,-2864,-2844,-2869,-2862,-2863,-2868,-2864,-2871,-2862,-2875,-2873,-2877,-2879,-2880,-2878,-2881,-2886,-2883,-2886,-2888,-2890,-2895,-2894,-2899,-2909,-2904,-2912,-2907,-2908,-2913,-2914,-2914,-2923,-2926,-2925,-2928,-2925,-2933,-2929,-2927,-2922,-2928,-2931,-2931,-2934,-2933,-2936,-2938,-2938,-2935,-2939,-2940,-2943,-2950,-2939,-2949,-2950,-2944,-2948,-2945,-2948,-2946,-2947,-2947,-2948,-2949,-2949,-2950,-2952,-2954,-2955,-2953,-2955,-2955,-2959,-2962,-2964,-2965,-2965,-2969,-2969,-2972,-2974,-2976,-2976,-2976,-2976,-2977,-2978,-2979,-2978,-2980,-2981,-2980,-2981,-2981,-2981,-2981,-2980,-2981,-2982,-2987,-2989,-2992,-2995,-2997,-2999,-3000,-3002,-3001,-3002,-3004,-3006,-3007,-3007,-3009,-3012,-3016,-3016,-3018,-3021,-3025,-3027,-3029,-3030,-3030,-3031,-3039,-3044,-3045,-3048,-3049,-3052,-3053,-3054,-3055,-3071,-3064,-3067,-3072,-3071,-3074,-3080,-3082,-3088,-3087,-3128,-3129,-3129,-3128,-3129,-3125,-3131,-3133,-3137,-3139,-3142,-3143,-3146,-3148,-3149,-3152,-3153,-3154,-3156,-3157,-3158,-3158,-3159,-3158,-3155,-3156,-3161,-3164,-3165,-3169,-3174,-3177,-3181,-3184,-3187,-3191,-3198,-3201,-3203,-3203,-3206,-3207,-3209,-3208,-3210,-3209,-3212,-3213,-3214,-3214,-3214,-3213,-3214,-3215,-3221,-3222,-3224,-3225,-3224,-3225,-3230,-3232,-3232,-3229,-3233,-3236,-3245,-3242,-3245,-3249,-3251,-3251,-3252,-3254,-3254,-3255,-3258,-3261,-3267,-3266,-3269,-3272,-3277,-3279,-3283,-3285,-3288,-3285,-3286,-3288,-3293,-3294,-3296,-3296,-3296,-3296,-3297,-3300,-3302,-3305,-3308,-3310,-3311,-3311,-3313,-3317,-3319,-3320,-3323,-3325,-3327,-3326,-3330,-3331,-3332,-3330,-3334,-3333,-3338,-3345,-3346,-3341,-3340,-3342,-3342,-3338,-3341,-3353,-3365,-3362,-3365,-3367,-3367,-3367,-3367,-3369,-3373,-3377,-3378,-3380,-3379,-3379,-3380,-3382,-3390,-3402,-3408,-3408,-3410,-3410,-3414,-3416,-3421,-3423,-3426,-3431,-3434,-3437,-3437,-3439,-3437,-3454,-3453,-3454,-3458,-3460,-3476,-3478,-3478,-3466,-3481,-3483,-3475,-3470,-3468,-3469,-3471
72.9979166666667,-2328,-2337,-2343,-2346,-2351,-2354,-2358,-2360,-2362,-2365,-2367,-2368,-2370,-2375,-2376,-2376,-2378,-2384,-2384,-2387,-2392,-2399,-2413,-2437,-2452,-2461,-2462,-2467,-2467,-2466,-2467,-2466,-2464,-2464,-2464,-2465,-2464,-2462,-2448,-2433,-2424,-2419,-2417,-2416,-2416,-2415,-2416,-2415,-2423,-2425,-2429,-2425,-2423,-2422,-2422,-2421,-2428,-2431,-2435,-2436,-2428,-2442,-2436,-2442,-2447,-2448,-2446,-2462,-2457,-2482,-2413,-2413,-2422,-2394,-2415,-2404,-2408,-2401,-2398,-2393,-2390,-2400,-2423,-2431,-2434,-2451,-2454,-2461,-2462,-2464,-2469,-2468,-2474,-2472,-2469,-2480,-2480,-2483,-2483,-2486,-2483,-2493,-2500,-2514,-2512,-2552,-2583,-2619,-2671,-2699,-2709,-2717,-2726,-2736,-2744,-2750,-2759,-2761,-2766,-2771,-2772,-2776,-2777,-2781,-2783,-2788,-2792,-2794,-2795,-2799,-2803,-2806,-2813,-2818,-2825,-2831,-2835,-2839,-2841,-2844,-2844,-2843,-2840,-2835,-2835,-2831,-2830,-2831,-2835,-2834,-2844,-2851,-2846,-2843,-2843,-2847,-2846,-2848,-2871,-2865,-2873,-2868,-2869,-2865,-2866,-2878,-2872,-2879,-2877,-2883,-2881,-2889,-2890,-2894,-2895,-2899,-2899,-2904,-2911,-2908,-2910,-2915,-2919,-2915,-2917,-2920,-2923,-2917,-2925,-2922,-2924,-2928,-2928,-2930,-2926,-2936,-2941,-2949,-2938,-2943,-2943,-2951,-2947,-2942,-2941,-2942,-2941,-2938,-2941,-2943,-2945,-2948,-2950,-2950,-2954,-2955,-2954,-2955,-2958,-2960,-2960,-2958,-2958,-2958,-2959,-2960,-2961,-2962,-2963,-2964,-2964,-2964,-2966,-2969,-2971,-2976,-2977,-2979,-2982,-2980,-2981,-2983,-2983,-2984,-2983,-2985,-2986,-2986,-2988,-2989,-2990,-2990,-2991,-2990,-2993,-2993,-2992,-2995,-2996,-2998,-2995,-2999,-3002,-3007,-3011,-3012,-3011,-3010,-3011,-3012,-3014,-3017,-3019,-3020,-3022,-3022,-3024,-3027,-3030,-3032,-3034,-3035,-3037,-3038,-3039,-3041,-3042,-3045,-3049,-3054,-3069,-3058,-3061,-3062,-3065,-3069,-3073,-3075,-3079,-3100,-3118,-3119,-3120,-3122,-3130,-3132,-3136,-3136,-3136,-3138,-3141,-3143,-3142,-3144,-3145,-3145,-3146,-3149,-3150,-3153,-3154,-3156,-3157,-3160,-3162,-3163,-3163,-3164,-3166,-3164,-3170,-3172,-3175,-3176,-3180,-3182,-3183,-3186,-3190,-3192,-3193,-3198,-3204,-3208,-3211,-3213,-3214,-3215,-3215,-3216,-3218,-3216,-3221,-3221,-3223,-3223,-3224,-3226,-3227,-3228,-3229,-3233,-3231,-3239,-3240,-3241,-3239,-3240,-3241,-3242,-3245,-3248,-3253,-3255,-3256,-3256,-3262,-3267,-3270,-3271,-3273,-3273,-3273,-3272,-3273,-3279,-3282,-3287,-3289,-3292,-3295,-3297,-3297,-3296,-3299,-3298,-3302,-3304,-3305,-3304,-3304,-3306,-3308,-3309,-3310,-3312,-3312,-3314,-3317,-3318,-3317,-3321,-3324,-3332,-3337,-3337,-3337,-3338,-3338,-3338,-3339,-3341,-3343,-3346,-3345,-3348,-3349,-3350,-3356,-3359,-3366,-3370,-3371,-3373,-3372,-3372,-3372,-3374,-3375,-3377,-3381,-3382,-3384,-3387,-3389,-3391,-3391,-3397,-3413,-3418,-3418,-3417,-3416,-3419,-3420,-3422,-3424,-3431,-3433,-3437,-3439,-3440,-3442,-3443,-3448,-3448,-3450,-3454,-3460,-3466,-3470,-3469,-3487,-3470,-3470,-3478,-3480,-3479,-3479,-3482
73.0020833333333,-2338,-2348,-2351,-2355,-2358,-2362,-2365,-2368,-2373,-2376,-2379,-2382,-2385,-2387,-2389,-2393,-2395,-2397,-2401,-2399,-2401,-2404,-2411,-2418,-2429,-2444,-2464,-2474,-2478,-2481,-2478,-2480,-2482,-2481,-2482,-2484,-2481,-2480,-2481,-2481,-2483,-2466,-2458,-2452,-2446,-2443,-2441,-2440,-2442,-2445,-2444,-2448,-2448,-2452,-2453,-2455,-2453,-2453,-2451,-2452,-2452,-2453,-2455,-2460,-2472,-2468,-2477,-2480,-2479,-2468,-2461,-2459,-2533,-2516,-2527,-2453,-2463,-2447,-2440,-2411,-2438,-2412,-2434,-2436,-2459,-2464,-2480,-2474,-2493,-2478,-2473,-2484,-2496,-2482,-2486,-2492,-2501,-2488,-2501,-2493,-2504,-2496,-2505,-2504,-2528,-2526,-2573,-2606,-2653,-2670,-2698,-2709,-2715,-2721,-2730,-2743,-2752,-2760,-2771,-2775,-2780,-2781,-2786,-2790,-2793,-2795,-2796,-2799,-2802,-2802,-2804,-2808,-2810,-2813,-2817,-2822,-2826,-2826,-2833,-2839,-2845,-2844,-2839,-2842,-2844,-2841,-2840,-2839,-2843,-2868,-2871,-2849,-2853,-2854,-2852,-2856,-2856,-2856,-2854,-2862,-2867,-2871,-2876,-2870,-2878,-2875,-2881,-2872,-2879,-2881,-2883,-2891,-2895,-2900,-2899,-2902,-2904,-2910,-2912,-2913,-2914,-2918,-2924,-2922,-2920,-2923,-2924,-2925,-2928,-2929,-2932,-2935,-2931,-2939,-2943,-2953,-2958,-2967,-2960,-2948,-2949,-2950,-2948,-2946,-2949,-2948,-2948,-2951,-2953,-2958,-2958,-2957,-2961,-2962,-2961,-2963,-2964,-2965,-2968,-2968,-2970,-2972,-2973,-2972,-2972,-2973,-2973,-2973,-2974,-2973,-2972,-2974,-2975,-2976,-2978,-2978,-2982,-2985,-2987,-2988,-2988,-2990,-2990,-2991,-2992,-2993,-2995,-2997,-2997,-2998,-2998,-3001,-3002,-3003,-3003,-3003,-3005,-3007,-3008,-3007,-3009,-3009,-3011,-3014,-3018,-3021,-3022,-3021,-3024,-3025,-3025,-3024,-3025,-3027,-3030,-3031,-3035,-3037,-3037,-3039,-3043,-3044,-3045,-3043,-3044,-3046,-3056,-3053,-3058,-3059,-3059,-3063,-3068,-3069,-3068,-3076,-3122,-3079,-3120,-3120,-3121,-3118,-3119,-3125,-3128,-3131,-3133,-3138,-3143,-3144,-3144,-3146,-3146,-3148,-3149,-3150,-3151,-3150,-3152,-3153,-3154,-3157,-3159,-3161,-3163,-3164,-3167,-3169,-3170,-3170,-3175,-3177,-3179,-3180,-3181,-3181,-3183,-3185,-3189,-3193,-3196,-3200,-3204,-3207,-3213,-3214,-3215,-3216,-3219,-3219,-3222,-3223,-3228,-3228,-3229,-3231,-3232,-3234,-3235,-3237,-3237,-3239,-3243,-3244,-3246,-3246,-3248,-3246,-3250,-3247,-3251,-3256,-3259,-3263,-3267,-3271,-3272,-3275,-3277,-3279,-3279,-3280,-3281,-3287,-3295,-3293,-3292,-3292,-3293,-3295,-3296,-3296,-3299,-3301,-3300,-3301,-3304,-3305,-3307,-3307,-3308,-3307,-3309,-3312,-3315,-3316,-3315,-3317,-3324,-3322,-3323,-3326,-3337,-3339,-3338,-3336,-3336,-3338,-3337,-3340,-3344,-3346,-3348,-3351,-3352,-3353,-3357,-3363,-3369,-3373,-3373,-3374,-3373,-3373,-3378,-3378,-3381,-3383,-3386,-3387,-3390,-3394,-3393,-3395,-3397,-3403,-3403,-3408,-3413,-3418,-3421,-3420,-3425,-3428,-3431,-3430,-3434,-3434,-3438,-3440,-3442,-3445,-3447,-3450,-3449,-3455,-3456,-3459,-3460,-3463,-3467,-3468,-3469,-3480,-3494,-3490,-3487,-3501,-3492,-3494
73.00625,-2337,-2345,-2353,-2360,-2365,-2368,-2372,-2379,-2383,-2387,-2392,-2394,-2398,-2401,-2403,-2406,-2409,-2412,-2414,-2417,-2417,-2417,-2419,-2421,-2426,-2432,-2444,-2459,-2470,-2481,-2486,-2490,-2495,-2498,-2501,-2499,-2501,-2501,-2500,-2498,-2497,-2498,-2497,-2492,-2477,-2472,-2459,-2454,-2451,-2457,-2457,-2461,-2462,-2462,-2463,-2465,-2466,-2467,-2466,-2470,-2471,-2468,-2470,-2478,-2478,-2484,-2488,-2498,-2507,-2508,-2510,-2536,-2502,-2538,-2528,-2530,-2500,-2516,-2465,-2485,-2450,-2487,-2437,-2470,-2472,-2505,-2483,-2506,-2514,-2525,-2501,-2517,-2501,-2513,-2507,-2518,-2505,-2512,-2511,-2519,-2508,-2512,-2510,-2521,-2521,-2551,-2543,-2563,-2597,-2617,-2655,-2666,-2675,-2683,-2704,-2724,-2736,-2747,-2765,-2770,-2778,-2787,-2792,-2797,-2796,-2798,-2801,-2802,-2804,-2805,-2808,-2808,-2811,-2814,-2818,-2821,-2826,-2828,-2832,-2834,-2838,-2842,-2847,-2855,-2857,-2855,-2850,-2849,-2848,-2852,-2849,-2849,-2866,-2865,-2865,-2863,-2863,-2866,-2864,-2862,-2882,-2883,-2887,-2890,-2889,-2878,-2882,-2884,-2880,-2884,-2883,-2894,-2889,-2894,-2896,-2902,-2906,-2907,-2912,-2914,-2916,-2922,-2926,-2928,-2931,-2934,-2933,-2933,-2936,-2935,-2938,-2943,-2945,-2945,-2949,-2953,-2953,-2955,-2949,-2949,-2951,-2957,-2958,-2957,-2957,-2958,-2957,-2957,-2959,-2963,-2967,-2967,-2970,-2972,-2971,-2973,-2973,-2971,-2974,-2975,-2977,-2978,-2980,-2981,-2985,-2986,-2988,-2984,-2985,-2984,-2984,-2985,-2984,-2986,-2988,-2990,-2992,-2995,-2996,-2996,-3000,-2999,-2999,-3000,-3005,-3007,-3010,-3013,-3010,-3008,-3010,-3011,-3011,-3013,-3014,-3014,-3015,-3015,-3014,-3015,-3017,-3019,-3021,-3022,-3027,-3030,-3032,-3034,-3035,-3036,-3036,-3038,-3038,-3039,-3038,-3037,-3039,-3041,-3044,-3044,-3043,-3042,-3046,-3052,-3053,-3055,-3055,-3057,-3061,-3064,-3064,-3065,-3087,-3091,-3115,-3116,-3121,-3119,-3120,-3119,-3122,-3125,-3126,-3128,-3126,-3128,-3131,-3135,-3138,-3142,-3145,-3148,-3148,-3152,-3153,-3153,-3154,-3155,-3156,-3156,-3156,-3158,-3160,-3163,-3165,-3166,-3167,-3170,-3175,-3177,-3179,-3180,-3181,-3183,-3186,-3186,-3185,-3188,-3197,-3199,-3199,-3201,-3205,-3209,-3212,-3215,-3219,-3223,-3226,-3230,-3233,-3234,-3238,-3237,-3240,-3237,-3240,-3243,-3247,-3246,-3247,-3247,-3248,-3248,-3247,-3247,-3249,-3251,-3257,-3256,-3260,-3263,-3262,-3265,-3269,-3274,-3277,-3279,-3280,-3282,-3285,-3286,-3289,-3292,-3297,-3298,-3298,-3293,-3298,-3299,-3301,-3300,-3302,-3301,-3304,-3307,-3305,-3308,-3312,-3313,-3313,-3314,-3316,-3318,-3320,-3323,-3326,-3327,-3330,-3332,-3335,-3336,-3337,-3338,-3338,-3337,-3337,-3343,-3345,-3346,-3346,-3350,-3353,-3355,-3357,-3359,-3366,-3360,-3365,-3367,-3375,-3373,-3378,-3381,-3388,-3387,-3393,-3391,-3393,-3395,-3397,-3400,-3403,-3405,-3408,-3412,-3414,-3417,-3421,-3422,-3425,-3426,-3428,-3430,-3433,-3435,-3438,-3440,-3442,-3443,-3446,-3450,-3451,-3452,-3454,-3459,-3463,-3466,-3468,-3470,-3472,-3471,-3475,-3476,-3480,-3481,-3482,-3500,-3491,-3497
73.0104166666667,-2320,-2329,-2338,-2350,-2360,-2372,-2383,-2390,-2395,-2399,-2402,-2404,-2407,-2410,-2413,-2416,-2418,-2421,-2425,-2429,-2433,-2436,-2438,-2437,-2437,-2437,-2438,-2445,-2452,-2463,-2477,-2487,-2495,-2502,-2507,-2511,-2517,-2522,-2523,-2519,-2518,-2519,-2516,-2512,-2513,-2499,-2494,-2494,-2488,-2482,-2481,-2479,-2481,-2482,-2483,-2486,-2486,-2485,-2491,-2490,-2490,-2490,-2488,-2493,-2492,-2490,-2499,-2507,-2510,-2519,-2523,-2532,-2543,-2545,-2538,-2545,-2538,-2547,-2537,-2514,-2539,-2541,-2528,-2504,-2523,-2535,-2532,-2550,-2537,-2547,-2538,-2551,-2537,-2525,-2533,-2547,-2534,-2524,-2538,-2537,-2530,-2536,-2542,-2542,-2537,-2555,-2540,-2557,-2568,-2585,-2596,-2620,-2643,-2661,-2666,-2687,-2688,-2707,-2728,-2735,-2756,-2773,-2783,-2794,-2797,-2807,-2808,-2810,-2813,-2813,-2815,-2816,-2820,-2821,-2820,-2824,-2828,-2831,-2835,-2839,-2842,-2847,-2852,-2859,-2861,-2863,-2867,-2866,-2870,-2865,-2864,-2877,-2881,-2897,-2875,-2870,-2881,-2871,-2875,-2878,-2874,-2881,-2886,-2883,-2893,-2897,-2894,-2882,-2884,-2882,-2884,-2887,-2892,-2896,-2896,-2898,-2899,-2904,-2907,-2913,-2917,-2918,-2926,-2930,-2932,-2936,-2939,-2939,-2943,-2948,-2945,-2951,-2952,-2950,-2951,-2953,-2950,-2954,-2954,-2954,-2953,-2955,-2957,-2959,-2963,-2967,-2969,-2970,-2968,-2968,-2973,-2977,-2978,-2979,-2979,-2981,-2980,-2981,-2982,-2983,-2987,-2989,-2987,-2987,-2991,-2994,-2995,-2996,-2997,-3002,-3000,-3001,-3000,-3001,-3003,-3002,-3003,-3004,-3004,-3007,-3008,-3008,-3010,-3015,-3016,-3016,-3018,-3019,-3019,-3020,-3022,-3024,-3023,-3024,-3024,-3023,-3026,-3027,-3027,-3029,-3030,-3031,-3027,-3031,-3033,-3035,-3037,-3040,-3041,-3045,-3046,-3048,-3049,-3049,-3049,-3048,-3047,-3038,-3051,-3048,-3054,-3060,-3057,-3055,-3059,-3084,-3071,-3061,-3064,-3097,-3100,-3102,-3105,-3111,-3114,-3115,-3116,-3122,-3122,-3124,-3125,-3128,-3128,-3129,-3129,-3130,-3130,-3132,-3133,-3134,-3137,-3141,-3144,-3147,-3149,-3153,-3155,-3157,-3158,-3160,-3161,-3164,-3164,-3166,-3168,-3171,-3173,-3175,-3176,-3176,-3177,-3176,-3184,-3188,-3190,-3191,-3192,-3196,-3200,-3202,-3206,-3207,-3210,-3213,-3216,-3221,-3223,-3230,-3233,-3236,-3239,-3242,-3245,-3244,-3247,-3247,-3251,-3252,-3254,-3255,-3257,-3260,-3259,-3261,-3258,-3261,-3262,-3262,-3262,-3267,-3268,-3268,-3270,-3272,-3278,-3275,-3280,-3281,-3282,-3285,-3290,-3292,-3292,-3293,-3298,-3303,-3305,-3309,-3310,-3310,-3310,-3310,-3307,-3308,-3304,-3309,-3311,-3313,-3318,-3319,-3321,-3322,-3323,-3325,-3325,-3325,-3326,-3329,-3329,-3334,-3336,-3338,-3338,-3341,-3342,-3344,-3344,-3347,-3352,-3355,-3358,-3358,-3358,-3360,-3362,-3368,-3372,-3374,-3377,-3379,-3382,-3386,-3389,-3392,-3395,-3394,-3392,-3392,-3395,-3398,-3401,-3404,-3407,-3410,-3414,-3416,-3421,-3425,-3430,-3434,-3437,-3440,-3442,-3437,-3439,-3440,-3444,-3445,-3447,-3449,-3451,-3453,-3454,-3459,-3462,-3463,-3466,-3465,-3465,-3465,-3473,-3477,-3483,-3483,-3487,-3487,-3488,-3489,-3490,-3489
73.0145833333333,-2315,-2327,-2337,-2344,-2353,-2361,-2373,-2384,-2397,-2405,-2413,-2417,-2420,-2422,-2424,-2424,-2426,-2430,-2434,-2438,-2441,-2446,-2450,-2454,-2453,-2451,-2451,-2451,-2453,-2459,-2463,-2471,-2485,-2496,-2503,-2507,-2516,-2522,-2525,-2531,-2533,-2534,-2535,-2533,-2534,-2529,-2529,-2526,-2526,-2525,-2514,-2506,-2497,-2491,-2494,-2494,-2498,-2502,-2503,-2500,-2503,-2503,-2504,-2505,-2507,-2513,-2505,-2516,-2518,-2539,-2545,-2544,-2543,-2548,-2553,-2550,-2555,-2556,-2562,-2556,-2564,-2549,-2567,-2551,-2576,-2552,-2573,-2582,-2591,-2566,-2590,-2574,-2600,-2571,-2588,-2569,-2591,-2555,-2570,-2551,-2565,-2565,-2580,-2562,-2578,-2566,-2585,-2563,-2576,-2570,-2571,-2588,-2596,-2630,-2643,-2646,-2666,-2671,-2686,-2715,-2731,-2746,-2759,-2775,-2783,-2796,-2807,-2813,-2818,-2820,-2820,-2824,-2825,-2827,-2828,-2830,-2832,-2836,-2841,-2839,-2844,-2846,-2850,-2852,-2859,-2865,-2871,-2879,-2881,-2877,-2879,-2876,-2897,-2889,-2885,-2881,-2882,-2885,-2884,-2879,-2884,-2885,-2894,-2902,-2897,-2901,-2900,-2887,-2893,-2895,-2889,-2895,-2897,-2897,-2895,-2899,-2901,-2903,-2907,-2909,-2917,-2916,-2919,-2930,-2930,-2939,-2936,-2939,-2948,-2949,-2952,-2955,-2954,-2959,-2959,-2962,-2961,-2961,-2960,-2959,-2964,-2966,-2966,-2967,-2969,-2972,-2977,-2978,-2981,-2980,-2983,-2985,-2987,-2987,-2988,-2990,-2990,-2991,-2993,-2995,-2998,-2996,-2998,-2999,-2999,-3002,-3003,-3004,-3006,-3009,-3011,-3013,-3016,-3017,-3016,-3015,-3015,-3018,-3019,-3020,-3020,-3019,-3023,-3024,-3026,-3029,-3030,-3029,-3031,-3034,-3035,-3034,-3037,-3037,-3036,-3038,-3039,-3042,-3036,-3037,-3039,-3041,-3043,-3044,-3044,-3044,-3043,-3044,-3047,-3051,-3055,-3059,-3060,-3076,-3072,-3056,-3060,-3060,-3064,-3061,-3064,-3064,-3088,-3081,-3081,-3082,-3084,-3086,-3095,-3098,-3099,-3106,-3112,-3114,-3115,-3118,-3122,-3123,-3123,-3124,-3124,-3126,-3127,-3129,-3132,-3132,-3132,-3132,-3133,-3134,-3135,-3137,-3140,-3141,-3144,-3148,-3152,-3153,-3155,-3160,-3165,-3166,-3167,-3168,-3172,-3174,-3176,-3178,-3180,-3182,-3185,-3188,-3189,-3190,-3191,-3195,-3198,-3200,-3203,-3206,-3207,-3206,-3212,-3213,-3216,-3220,-3224,-3233,-3239,-3242,-3245,-3249,-3251,-3253,-3253,-3253,-3255,-3257,-3260,-3264,-3266,-3268,-3265,-3263,-3258,-3262,-3270,-3274,-3276,-3277,-3279,-3279,-3275,-3278,-3283,-3284,-3282,-3285,-3288,-3292,-3293,-3295,-3294,-3296,-3299,-3304,-3309,-3312,-3311,-3311,-3311,-3314,-3316,-3317,-3318,-3317,-3318,-3320,-3321,-3323,-3325,-3328,-3329,-3331,-3332,-3331,-3331,-3336,-3336,-3337,-3339,-3341,-3343,-3348,-3350,-3353,-3354,-3353,-3354,-3355,-3359,-3363,-3364,-3366,-3367,-3370,-3372,-3377,-3379,-3381,-3384,-3387,-3389,-3391,-3394,-3397,-3399,-3397,-3396,-3398,-3401,-3404,-3408,-3412,-3417,-3421,-3425,-3425,-3426,-3427,-3434,-3444,-3450,-3453,-3455,-3458,-3458,-3458,-3457,-3453,-3450,-3446,-3457,-3462,-3468,-3472,-3474,-3474,-3476,-3480,-3484,-3487,-3487,-3489,-3490,-3490,-3490,-3492,-3493,-3494
73.01875,-2325,-2334,-2345,-2352,-2358,-2364,-2372,-2381,-2391,-2402,-2411,-2419,-2425,-2430,-2436,-2439,-2442,-2441,-2444,-2449,-2450,-2456,-2461,-2464,-2466,-2469,-2471,-2473,-2468,-2468,-2468,-2471,-2475,-2481,-2498,-2505,-2509,-2520,-2524,-2529,-2534,-2537,-2536,-2536,-2536,-2537,-2541,-2545,-2542,-2548,-2547,-2544,-2521,-2507,-2492,-2512,-2507,-2531,-2511,-2524,-2525,-2520,-2523,-2523,-2533,-2526,-2542,-2548,-2575,-2572,-2557,-2560,-2559,-2577,-2572,-2556,-2562,-2567,-2574,-2568,-2578,-2577,-2586,-2585,-2593,-2592,-2589,-2597,-2605,-2605,-2602,-2611,-2619,-2608,-2618,-2613,-2621,-2613,-2633,-2613,-2587,-2617,-2611,-2612,-2591,-2621,-2615,-2604,-2608,-2613,-2610,-2582,-2636,-2617,-2628,-2615,-2624,-2637,-2652,-2663,-2686,-2716,-2731,-2750,-2765,-2779,-2793,-2805,-2813,-2818,-2827,-2829,-2834,-2835,-2838,-2838,-2839,-2841,-2842,-2842,-2844,-2851,-2855,-2857,-2861,-2865,-2871,-2878,-2884,-2889,-2890,-2894,-2893,-2898,-2901,-2895,-2895,-2885,-2892,-2893,-2889,-2892,-2902,-2905,-2911,-2908,-2920,-2906,-2896,-2900,-2902,-2900,-2901,-2903,-2903,-2901,-2901,-2904,-2904,-2909,-2908,-2918,-2920,-2922,-2927,-2928,-2935,-2937,-2938,-2942,-2947,-2954,-2954,-2959,-2964,-2967,-2972,-2970,-2975,-2974,-2976,-2976,-2977,-2977,-2978,-2979,-2983,-2985,-2987,-2989,-2990,-2993,-2994,-2997,-2999,-3001,-3001,-3004,-3002,-3007,-3008,-3007,-3008,-3010,-3011,-3010,-3012,-3012,-3015,-3015,-3017,-3019,-3019,-3021,-3024,-3031,-3032,-3032,-3030,-3031,-3029,-3034,-3037,-3036,-3036,-3038,-3038,-3039,-3042,-3043,-3044,-3046,-3046,-3045,-3045,-3048,-3051,-3052,-3053,-3055,-3057,-3051,-3052,-3053,-3057,-3058,-3058,-3057,-3056,-3068,-3080,-3084,-3085,-3085,-3067,-3066,-3071,-3066,-3070,-3100,-3091,-3095,-3095,-3095,-3090,-3094,-3100,-3098,-3099,-3102,-3104,-3108,-3111,-3114,-3117,-3120,-3122,-3122,-3125,-3127,-3127,-3128,-3128,-3130,-3131,-3132,-3133,-3135,-3136,-3137,-3138,-3137,-3138,-3140,-3142,-3145,-3148,-3151,-3153,-3156,-3159,-3162,-3167,-3170,-3175,-3180,-3183,-3183,-3184,-3187,-3190,-3191,-3192,-3192,-3195,-3197,-3200,-3205,-3210,-3214,-3219,-3221,-3223,-3224,-3229,-3232,-3239,-3241,-3242,-3244,-3246,-3250,-3254,-3258,-3261,-3260,-3261,-3263,-3267,-3270,-3274,-3272,-3275,-3272,-3272,-3273,-3279,-3284,-3288,-3290,-3290,-3290,-3293,-3292,-3291,-3292,-3298,-3300,-3304,-3304,-3304,-3304,-3301,-3303,-3307,-3313,-3315,-3314,-3317,-3319,-3319,-3321,-3322,-3321,-3320,-3322,-3323,-3325,-3324,-3326,-3330,-3333,-3334,-3336,-3336,-3336,-3342,-3343,-3346,-3344,-3350,-3352,-3353,-3354,-3355,-3357,-3356,-3359,-3360,-3366,-3366,-3369,-3369,-3374,-3375,-3378,-3379,-3381,-3381,-3382,-3383,-3389,-3391,-3393,-3394,-3396,-3400,-3404,-3406,-3410,-3410,-3411,-3409,-3413,-3419,-3427,-3434,-3436,-3435,-3444,-3449,-3453,-3454,-3454,-3460,-3463,-3464,-3463,-3462,-3463,-3465,-3469,-3474,-3474,-3473,-3474,-3477,-3479,-3481,-3484,-3486,-3488,-3489,-3491,-3493,-3494,-3494,-3495,-3497,-3499
73.0229166666667,-2320,-2329,-2343,-2351,-2360,-2366,-2372,-2379,-2386,-2397,-2405,-2416,-2428,-2435,-2445,-2451,-2455,-2460,-2461,-2462,-2465,-2466,-2469,-2474,-2479,-2481,-2482,-2485,-2488,-2486,-2483,-2481,-2480,-2482,-2487,-2495,-2506,-2516,-2528,-2534,-2538,-2541,-2546,-2549,-2549,-2553,-2553,-2552,-2553,-2553,-2549,-2539,-2544,-2544,-2557,-2548,-2558,-2560,-2560,-2539,-2526,-2534,-2535,-2541,-2543,-2545,-2549,-2564,-2561,-2563,-2568,-2584,-2578,-2578,-2576,-2582,-2587,-2581,-2594,-2597,-2607,-2591,-2601,-2608,-2599,-2608,-2603,-2632,-2606,-2614,-2615,-2622,-2620,-2627,-2628,-2634,-2632,-2636,-2638,-2642,-2640,-2647,-2641,-2650,-2643,-2654,-2637,-2652,-2648,-2660,-2640,-2659,-2658,-2671,-2650,-2666,-2668,-2665,-2650,-2660,-2673,-2689,-2704,-2709,-2729,-2742,-2765,-2783,-2799,-2812,-2822,-2830,-2838,-2843,-2846,-2848,-2846,-2846,-2845,-2850,-2851,-2852,-2857,-2859,-2863,-2867,-2873,-2875,-2881,-2886,-2896,-2902,-2901,-2918,-2911,-2912,-2908,-2913,-2904,-2911,-2905,-2899,-2900,-2917,-2917,-2907,-2911,-2915,-2914,-2908,-2908,-2903,-2909,-2908,-2910,-2909,-2913,-2912,-2912,-2910,-2913,-2916,-2918,-2921,-2922,-2924,-2926,-2933,-2934,-2937,-2943,-2948,-2954,-2958,-2961,-2967,-2970,-2975,-2983,-2987,-2986,-2983,-2984,-2986,-2988,-2989,-2990,-2993,-2995,-2995,-2997,-2999,-3000,-3002,-3004,-3008,-3012,-3012,-3013,-3014,-3015,-3016,-3020,-3019,-3021,-3022,-3023,-3022,-3025,-3024,-3025,-3026,-3027,-3029,-3032,-3035,-3036,-3036,-3038,-3039,-3041,-3048,-3050,-3048,-3047,-3048,-3047,-3047,-3049,-3049,-3051,-3054,-3056,-3058,-3059,-3061,-3063,-3062,-3064,-3065,-3066,-3067,-3068,-3071,-3076,-3083,-3087,-3091,-3092,-3084,-3088,-3093,-3093,-3096,-3095,-3109,-3100,-3100,-3092,-3104,-3100,-3105,-3100,-3102,-3105,-3103,-3103,-3101,-3107,-3108,-3111,-3111,-3114,-3118,-3121,-3122,-3123,-3125,-3126,-3126,-3127,-3129,-3131,-3132,-3134,-3133,-3135,-3136,-3137,-3138,-3139,-3141,-3141,-3142,-3144,-3145,-3145,-3147,-3153,-3156,-3160,-3162,-3167,-3169,-3172,-3177,-3182,-3186,-3189,-3190,-3194,-3196,-3201,-3202,-3202,-3203,-3207,-3213,-3216,-3219,-3221,-3230,-3229,-3236,-3235,-3239,-3242,-3244,-3247,-3251,-3256,-3257,-3260,-3259,-3262,-3267,-3275,-3278,-3281,-3282,-3282,-3284,-3284,-3281,-3285,-3287,-3293,-3295,-3298,-3296,-3294,-3297,-3298,-3298,-3298,-3298,-3303,-3304,-3307,-3304,-3306,-3309,-3310,-3310,-3311,-3313,-3316,-3319,-3321,-3321,-3321,-3320,-3325,-3326,-3329,-3331,-3336,-3336,-3336,-3338,-3341,-3345,-3344,-3342,-3340,-3336,-3346,-3355,-3355,-3352,-3354,-3356,-3358,-3360,-3362,-3362,-3365,-3368,-3370,-3371,-3372,-3375,-3378,-3380,-3382,-3382,-3385,-3386,-3387,-3389,-3391,-3392,-3395,-3397,-3399,-3401,-3402,-3405,-3407,-3409,-3410,-3416,-3425,-3430,-3426,-3434,-3438,-3442,-3450,-3454,-3456,-3457,-3457,-3460,-3463,-3465,-3468,-3466,-3466,-3463,-3461,-3463,-3467,-3473,-3477,-3481,-3479,-3479,-3483,-3487,-3491,-3491,-3494,-3494,-3495,-3496,-3496,-3497,-3500,-3503
73.0270833333333,-2309,-2326,-2346,-2361,-2367,-2373,-2380,-2385,-2392,-2399,-2407,-2413,-2421,-2430,-2442,-2450,-2461,-2466,-2469,-2473,-2476,-2482,-2486,-2484,-2484,-2485,-2488,-2489,-2491,-2494,-2496,-2499,-2497,-2498,-2498,-2500,-2506,-2519,-2526,-2537,-2542,-2546,-2549,-2551,-2549,-2547,-2558,-2563,-2553,-2553,-2555,-2561,-2556,-2555,-2557,-2556,-2558,-2564,-2568,-2572,-2574,-2572,-2573,-2567,-2552,-2555,-2557,-2566,-2565,-2571,-2577,-2573,-2576,-2583,-2583,-2587,-2601,-2601,-2604,-2603,-2611,-2611,-2615,-2622,-2644,-2677,-2625,-2631,-2637,-2621,-2631,-2646,-2631,-2633,-2637,-2641,-2642,-2639,-2643,-2648,-2650,-2659,-2657,-2658,-2665,-2670,-2669,-2665,-2673,-2671,-2676,-2670,-2680,-2680,-2680,-2682,-2686,-2691,-2695,-2729,-2692,-2688,-2726,-2734,-2746,-2748,-2769,-2775,-2788,-2807,-2808,-2817,-2825,-2836,-2839,-2847,-2852,-2857,-2855,-2857,-2856,-2860,-2860,-2863,-2867,-2870,-2875,-2879,-2884,-2888,-2893,-2899,-2907,-2910,-2925,-2926,-2926,-2922,-2922,-2917,-2916,-2913,-2913,-2912,-2916,-2913,-2921,-2921,-2918,-2913,-2911,-2913,-2917,-2914,-2917,-2917,-2915,-2913,-2912,-2914,-2916,-2915,-2918,-2919,-2922,-2920,-2927,-2930,-2933,-2937,-2938,-2947,-2949,-2949,-2955,-2964,-2965,-2973,-2973,-2986,-2984,-2985,-2993,-2990,-2992,-2995,-2996,-2999,-3002,-3005,-3006,-3007,-3006,-3010,-3013,-3015,-3018,-3020,-3023,-3025,-3026,-3026,-3027,-3027,-3028,-3031,-3031,-3031,-3032,-3033,-3034,-3036,-3038,-3040,-3041,-3041,-3041,-3044,-3043,-3045,-3052,-3054,-3056,-3057,-3060,-3060,-3059,-3060,-3060,-3060,-3060,-3062,-3063,-3063,-3065,-3067,-3070,-3073,-3073,-3076,-3076,-3077,-3080,-3081,-3087,-3089,-3091,-3093,-3094,-3092,-3090,-3090,-3085,-3089,-3116,-3116,-3113,-3106,-3108,-3108,-3112,-3115,-3116,-3117,-3111,-3116,-3108,-3107,-3108,-3113,-3115,-3118,-3119,-3121,-3122,-3126,-3127,-3129,-3129,-3131,-3130,-3130,-3131,-3133,-3135,-3137,-3138,-3141,-3141,-3142,-3140,-3142,-3143,-3147,-3148,-3148,-3150,-3154,-3157,-3158,-3161,-3165,-3170,-3173,-3175,-3177,-3180,-3183,-3187,-3190,-3196,-3202,-3204,-3207,-3211,-3216,-3218,-3221,-3224,-3227,-3230,-3234,-3239,-3241,-3245,-3245,-3251,-3250,-3253,-3255,-3258,-3261,-3264,-3270,-3274,-3278,-3281,-3284,-3286,-3288,-3287,-3289,-3290,-3289,-3293,-3292,-3293,-3295,-3300,-3300,-3302,-3303,-3306,-3306,-3305,-3306,-3307,-3309,-3310,-3311,-3310,-3314,-3315,-3314,-3315,-3316,-3318,-3319,-3322,-3325,-3326,-3328,-3331,-3330,-3334,-3336,-3340,-3342,-3342,-3345,-3348,-3349,-3350,-3354,-3353,-3357,-3360,-3361,-3361,-3363,-3365,-3365,-3366,-3368,-3372,-3377,-3379,-3382,-3389,-3381,-3385,-3384,-3388,-3389,-3389,-3389,-3393,-3392,-3395,-3401,-3399,-3406,-3407,-3405,-3403,-3403,-3407,-3409,-3407,-3407,-3415,-3416,-3423,-3434,-3442,-3449,-3449,-3449,-3456,-3457,-3458,-3458,-3460,-3464,-3466,-3468,-3469,-3470,-3471,-3471,-3470,-3472,-3472,-3474,-3479,-3483,-3486,-3487,-3489,-3490,-3491,-3493,-3495,-3496,-3497,-3500,-3503,-3505,-3507,-3508
73.03125,-2311,-2316,-2324,-2346,-2374,-2387,-2396,-2402,-2408,-2415,-2422,-2428,-2431,-2435,-2443,-2451,-2455,-2462,-2469,-2474,-2481,-2487,-2489,-2491,-2494,-2497,-2495,-2498,-2500,-2501,-2502,-2504,-2506,-2509,-2511,-2510,-2510,-2516,-2526,-2534,-2542,-2546,-2550,-2551,-2556,-2561,-2566,-2564,-2567,-2562,-2565,-2569,-2577,-2552,-2588,-2581,-2567,-2562,-2558,-2572,-2571,-2575,-2575,-2572,-2573,-2566,-2576,-2581,-2584,-2575,-2577,-2578,-2580,-2587,-2591,-2594,-2599,-2605,-2604,-2609,-2611,-2620,-2623,-2637,-2649,-2628,-2638,-2654,-2638,-2640,-2644,-2661,-2654,-2654,-2656,-2656,-2668,-2654,-2657,-2653,-2661,-2664,-2668,-2667,-2671,-2676,-2681,-2678,-2683,-2683,-2685,-2690,-2696,-2692,-2700,-2699,-2707,-2703,-2713,-2719,-2724,-2729,-2733,-2738,-2741,-2768,-2768,-2780,-2785,-2790,-2796,-2805,-2811,-2819,-2831,-2841,-2843,-2846,-2858,-2860,-2862,-2865,-2866,-2867,-2873,-2871,-2875,-2880,-2886,-2889,-2896,-2900,-2904,-2908,-2917,-2934,-2932,-2934,-2938,-2935,-2935,-2937,-2923,-2926,-2922,-2913,-2919,-2927,-2928,-2931,-2924,-2923,-2916,-2918,-2918,-2919,-2920,-2919,-2920,-2920,-2920,-2925,-2927,-2926,-2926,-2926,-2928,-2933,-2934,-2934,-2939,-2940,-2944,-2945,-2951,-2955,-2959,-2964,-2972,-2980,-2980,-2991,-2990,-2989,-2993,-2995,-2999,-3004,-3008,-3011,-3013,-3015,-3016,-3016,-3022,-3025,-3027,-3028,-3029,-3030,-3030,-3034,-3036,-3037,-3039,-3038,-3040,-3040,-3042,-3042,-3048,-3048,-3049,-3049,-3049,-3050,-3050,-3051,-3050,-3055,-3058,-3061,-3061,-3062,-3063,-3066,-3068,-3072,-3075,-3072,-3071,-3072,-3072,-3071,-3074,-3075,-3077,-3079,-3082,-3085,-3088,-3090,-3092,-3092,-3092,-3092,-3097,-3096,-3098,-3098,-3110,-3098,-3096,-3123,-3107,-3118,-3120,-3126,-3123,-3124,-3125,-3125,-3122,-3124,-3122,-3126,-3127,-3129,-3125,-3123,-3127,-3127,-3125,-3129,-3131,-3133,-3132,-3133,-3134,-3136,-3136,-3139,-3139,-3141,-3141,-3141,-3141,-3143,-3145,-3145,-3147,-3148,-3150,-3153,-3157,-3162,-3163,-3162,-3163,-3163,-3165,-3168,-3170,-3172,-3174,-3176,-3180,-3184,-3186,-3192,-3198,-3203,-3207,-3210,-3216,-3221,-3224,-3228,-3231,-3234,-3236,-3239,-3243,-3250,-3254,-3259,-3261,-3265,-3267,-3270,-3271,-3274,-3276,-3280,-3282,-3284,-3284,-3289,-3294,-3296,-3297,-3296,-3301,-3298,-3300,-3297,-3299,-3304,-3306,-3304,-3305,-3305,-3305,-3311,-3310,-3311,-3310,-3314,-3314,-3315,-3316,-3318,-3319,-3317,-3318,-3318,-3323,-3325,-3328,-3330,-3331,-3332,-3332,-3333,-3334,-3337,-3339,-3341,-3345,-3350,-3352,-3355,-3360,-3361,-3362,-3362,-3365,-3368,-3366,-3366,-3368,-3366,-3363,-3368,-3377,-3387,-3395,-3396,-3397,-3397,-3399,-3399,-3397,-3400,-3401,-3402,-3402,-3405,-3408,-3409,-3409,-3412,-3413,-3413,-3411,-3411,-3412,-3414,-3418,-3421,-3429,-3434,-3437,-3443,-3448,-3449,-3451,-3451,-3452,-3456,-3458,-3457,-3460,-3463,-3467,-3468,-3469,-3470,-3472,-3473,-3475,-3474,-3473,-3476,-3481,-3486,-3488,-3489,-3490,-3491,-3493,-3497,-3499,-3503,-3503,-3505,-3506,-3508,-3510,-3511
73.0354166666667,-2308,-2315,-2320,-2329,-2340,-2368,-2392,-2400,-2407,-2413,-2421,-2429,-2430,-2439,-2445,-2450,-2454,-2459,-2465,-2471,-2478,-2484,-2489,-2493,-2496,-2502,-2506,-2510,-2512,-2510,-2510,-2510,-2510,-2511,-2514,-2516,-2517,-2520,-2527,-2533,-2536,-2553,-2557,-2559,-2562,-2566,-2575,-2574,-2576,-2583,-2584,-2587,-2577,-2577,-2577,-2580,-2581,-2577,-2575,-2562,-2559,-2558,-2593,-2566,-2578,-2576,-2572,-2572,-2607,-2595,-2595,-2585,-2594,-2594,-2597,-2600,-2604,-2616,-2612,-2615,-2620,-2625,-2647,-2648,-2629,-2634,-2639,-2636,-2641,-2647,-2649,-2652,-2662,-2659,-2662,-2665,-2669,-2675,-2672,-2672,-2675,-2677,-2678,-2676,-2683,-2685,-2684,-2683,-2699,-2703,-2704,-2697,-2702,-2704,-2705,-2712,-2711,-2711,-2719,-2723,-2725,-2731,-2739,-2738,-2744,-2750,-2750,-2764,-2767,-2770,-2788,-2789,-2802,-2811,-2815,-2820,-2831,-2841,-2847,-2852,-2861,-2868,-2870,-2878,-2877,-2878,-2879,-2882,-2884,-2887,-2894,-2901,-2905,-2906,-2909,-2913,-2939,-2941,-2943,-2945,-2946,-2946,-2946,-2944,-2942,-2942,-2939,-2936,-2937,-2936,-2929,-2930,-2926,-2923,-2926,-2925,-2923,-2927,-2922,-2928,-2926,-2928,-2929,-2931,-2932,-2932,-2934,-2937,-2937,-2939,-2941,-2942,-2945,-2950,-2948,-2951,-2958,-2961,-2966,-2969,-2971,-2977,-2980,-2986,-2988,-2994,-2996,-3000,-3003,-3006,-3010,-3015,-3020,-3024,-3028,-3028,-3030,-3032,-3034,-3037,-3042,-3044,-3043,-3043,-3046,-3046,-3049,-3050,-3052,-3054,-3056,-3057,-3057,-3061,-3060,-3061,-3062,-3061,-3061,-3068,-3071,-3071,-3071,-3073,-3074,-3075,-3077,-3076,-3079,-3082,-3085,-3085,-3084,-3084,-3084,-3085,-3085,-3087,-3092,-3094,-3094,-3091,-3095,-3096,-3096,-3096,-3097,-3097,-3115,-3115,-3113,-3118,-3124,-3126,-3131,-3130,-3126,-3129,-3133,-3132,-3134,-3133,-3137,-3131,-3137,-3134,-3133,-3134,-3135,-3137,-3135,-3137,-3136,-3137,-3135,-3136,-3138,-3140,-3141,-3144,-3144,-3145,-3146,-3147,-3147,-3145,-3152,-3153,-3156,-3155,-3157,-3161,-3163,-3164,-3166,-3168,-3165,-3168,-3168,-3170,-3170,-3173,-3174,-3178,-3180,-3181,-3186,-3190,-3193,-3200,-3204,-3208,-3209,-3213,-3219,-3224,-3230,-3232,-3235,-3240,-3243,-3248,-3250,-3255,-3256,-3263,-3267,-3271,-3273,-3276,-3278,-3278,-3282,-3284,-3289,-3287,-3291,-3297,-3298,-3301,-3304,-3305,-3305,-3308,-3308,-3307,-3303,-3305,-3304,-3308,-3304,-3306,-3309,-3313,-3312,-3312,-3313,-3315,-3319,-3318,-3324,-3326,-3328,-3329,-3331,-3332,-3332,-3332,-3333,-3335,-3336,-3339,-3338,-3340,-3342,-3347,-3349,-3350,-3352,-3354,-3356,-3357,-3358,-3360,-3368,-3366,-3371,-3373,-3375,-3379,-3384,-3386,-3392,-3394,-3397,-3397,-3395,-3399,-3401,-3403,-3405,-3408,-3412,-3413,-3412,-3417,-3415,-3419,-3418,-3418,-3418,-3417,-3420,-3422,-3421,-3420,-3419,-3420,-3421,-3425,-3430,-3437,-3441,-3446,-3450,-3453,-3454,-3456,-3455,-3459,-3461,-3465,-3466,-3466,-3466,-3467,-3469,-3471,-3473,-3474,-3476,-3479,-3481,-3482,-3484,-3486,-3488,-3492,-3491,-3496,-3494,-3496,-3499,-3502,-3505,-3506,-3508,-3512,-3514,-3515
73.0395833333333,-2310,-2318,-2322,-2326,-2334,-2341,-2363,-2373,-2394,-2406,-2416,-2425,-2432,-2439,-2445,-2451,-2456,-2462,-2468,-2473,-2479,-2486,-2491,-2497,-2502,-2506,-2509,-2512,-2518,-2521,-2523,-2522,-2522,-2522,-2518,-2519,-2519,-2520,-2522,-2532,-2537,-2542,-2557,-2561,-2564,-2570,-2570,-2572,-2577,-2581,-2583,-2585,-2590,-2588,-2587,-2583,-2577,-2575,-2572,-2573,-2587,-2593,-2590,-2572,-2603,-2609,-2611,-2617,-2619,-2622,-2627,-2631,-2628,-2626,-2614,-2625,-2617,-2612,-2617,-2621,-2627,-2633,-2629,-2633,-2635,-2641,-2641,-2644,-2648,-2650,-2655,-2661,-2663,-2669,-2669,-2672,-2671,-2680,-2679,-2684,-2682,-2689,-2677,-2691,-2694,-2691,-2709,-2706,-2705,-2719,-2719,-2712,-2725,-2721,-2736,-2728,-2718,-2733,-2740,-2734,-2740,-2738,-2737,-2740,-2744,-2746,-2751,-2753,-2757,-2762,-2769,-2841,-2796,-2796,-2804,-2817,-2823,-2827,-2832,-2841,-2852,-2858,-2860,-2871,-2880,-2882,-2885,-2887,-2895,-2890,-2894,-2899,-2903,-2904,-2910,-2913,-2917,-2932,-2940,-2945,-2946,-2945,-2951,-2953,-2950,-2951,-2953,-2951,-2949,-2951,-2946,-2943,-2940,-2942,-2935,-2936,-2933,-2935,-2934,-2934,-2934,-2932,-2932,-2935,-2937,-2937,-2939,-2942,-2942,-2944,-2945,-2948,-2950,-2950,-2952,-2953,-2956,-2960,-2963,-2968,-2973,-2975,-2980,-2983,-2989,-2989,-2992,-2997,-3004,-3006,-3011,-3014,-3017,-3022,-3026,-3029,-3032,-3036,-3042,-3044,-3048,-3050,-3053,-3055,-3057,-3056,-3057,-3058,-3061,-3063,-3062,-3063,-3070,-3071,-3071,-3069,-3070,-3070,-3082,-3084,-3084,-3083,-3083,-3084,-3083,-3085,-3087,-3088,-3086,-3087,-3087,-3089,-3092,-3095,-3097,-3095,-3094,-3094,-3096,-3096,-3099,-3102,-3101,-3099,-3098,-3116,-3111,-3115,-3121,-3125,-3131,-3132,-3132,-3129,-3134,-3137,-3140,-3139,-3142,-3143,-3143,-3145,-3145,-3145,-3145,-3146,-3142,-3144,-3142,-3144,-3145,-3146,-3145,-3146,-3148,-3146,-3149,-3148,-3151,-3149,-3152,-3152,-3151,-3154,-3155,-3160,-3160,-3166,-3165,-3165,-3163,-3166,-3168,-3168,-3171,-3172,-3174,-3177,-3178,-3179,-3178,-3183,-3188,-3189,-3193,-3192,-3197,-3200,-3202,-3206,-3209,-3214,-3216,-3224,-3223,-3228,-3231,-3237,-3244,-3249,-3252,-3256,-3260,-3264,-3265,-3269,-3272,-3275,-3277,-3280,-3283,-3285,-3289,-3295,-3298,-3297,-3298,-3302,-3304,-3309,-3307,-3309,-3306,-3308,-3307,-3309,-3309,-3310,-3312,-3312,-3313,-3313,-3314,-3314,-3314,-3315,-3316,-3318,-3321,-3324,-3326,-3327,-3328,-3331,-3332,-3334,-3336,-3338,-3341,-3340,-3342,-3346,-3350,-3352,-3357,-3353,-3355,-3353,-3358,-3359,-3361,-3365,-3367,-3365,-3370,-3374,-3377,-3379,-3384,-3389,-3395,-3400,-3402,-3401,-3398,-3398,-3399,-3400,-3401,-3411,-3415,-3414,-3417,-3416,-3418,-3422,-3423,-3427,-3427,-3427,-3426,-3429,-3426,-3430,-3429,-3428,-3426,-3430,-3436,-3438,-3442,-3445,-3446,-3445,-3445,-3449,-3455,-3456,-3460,-3461,-3461,-3461,-3466,-3469,-3470,-3470,-3473,-3473,-3473,-3475,-3477,-3480,-3481,-3485,-3486,-3487,-3489,-3492,-3494,-3497,-3499,-3502,-3503,-3507,-3508,-3512,-3514,-3516,-3519,-3519
73.04375,-2310,-2317,-2328,-2334,-2339,-2345,-2351,-2358,-2364,-2381,-2403,-2421,-2425,-2431,-2439,-2450,-2456,-2465,-2470,-2475,-2482,-2487,-2491,-2496,-2500,-2504,-2510,-2513,-2516,-2520,-2526,-2529,-2530,-2531,-2532,-2533,-2531,-2531,-2531,-2533,-2536,-2541,-2542,-2548,-2564,-2569,-2566,-2575,-2586,-2579,-2575,-2579,-2579,-2587,-2592,-2589,-2581,-2579,-2580,-2582,-2587,-2589,-2590,-2589,-2589,-2605,-2611,-2615,-2617,-2619,-2625,-2631,-2634,-2637,-2640,-2641,-2643,-2644,-2641,-2641,-2645,-2637,-2638,-2649,-2643,-2643,-2649,-2650,-2650,-2652,-2656,-2659,-2662,-2666,-2667,-2672,-2678,-2684,-2681,-2684,-2685,-2692,-2694,-2695,-2698,-2709,-2702,-2713,-2715,-2714,-2718,-2732,-2720,-2725,-2726,-2735,-2737,-2732,-2741,-2747,-2745,-2744,-2753,-2756,-2732,-2768,-2779,-2770,-2781,-2779,-2780,-2797,-2777,-2779,-2786,-2813,-2831,-2823,-2832,-2832,-2838,-2842,-2850,-2853,-2861,-2872,-2875,-2879,-2889,-2895,-2900,-2901,-2906,-2908,-2909,-2914,-2916,-2934,-2938,-2940,-2945,-2946,-2944,-2953,-2953,-2954,-2958,-2959,-2965,-2973,-2957,-2963,-2959,-2953,-2954,-2950,-2947,-2945,-2942,-2944,-2942,-2942,-2942,-2943,-2945,-2947,-2947,-2948,-2948,-2948,-2950,-2952,-2954,-2955,-2956,-2956,-2958,-2958,-2963,-2967,-2971,-2976,-2984,-2990,-2994,-2994,-2993,-2993,-2998,-3001,-3005,-3010,-3013,-3015,-3020,-3024,-3031,-3034,-3039,-3044,-3048,-3051,-3056,-3058,-3061,-3063,-3063,-3066,-3069,-3070,-3072,-3074,-3077,-3078,-3080,-3081,-3084,-3085,-3090,-3093,-3093,-3094,-3095,-3094,-3094,-3097,-3097,-3098,-3099,-3099,-3099,-3098,-3099,-3099,-3100,-3102,-3103,-3105,-3105,-3098,-3099,-3130,-3132,-3131,-3126,-3131,-3135,-3135,-3134,-3135,-3136,-3138,-3139,-3142,-3143,-3146,-3142,-3147,-3147,-3148,-3149,-3151,-3151,-3152,-3152,-3153,-3154,-3153,-3154,-3152,-3151,-3155,-3153,-3154,-3152,-3155,-3156,-3159,-3157,-3159,-3159,-3163,-3166,-3168,-3171,-3173,-3170,-3171,-3170,-3172,-3173,-3176,-3177,-3177,-3181,-3180,-3184,-3186,-3188,-3191,-3192,-3196,-3199,-3203,-3202,-3208,-3209,-3214,-3216,-3217,-3221,-3224,-3226,-3230,-3234,-3239,-3242,-3247,-3252,-3256,-3260,-3263,-3265,-3268,-3272,-3275,-3278,-3281,-3286,-3291,-3289,-3295,-3296,-3298,-3300,-3301,-3303,-3305,-3305,-3304,-3307,-3312,-3311,-3308,-3307,-3309,-3310,-3312,-3314,-3318,-3318,-3317,-3317,-3317,-3318,-3320,-3322,-3323,-3324,-3326,-3328,-3329,-3331,-3333,-3333,-3337,-3339,-3342,-3346,-3348,-3353,-3354,-3355,-3358,-3362,-3364,-3366,-3367,-3368,-3368,-3373,-3376,-3378,-3382,-3379,-3383,-3388,-3385,-3385,-3385,-3392,-3397,-3400,-3402,-3409,-3410,-3413,-3416,-3418,-3418,-3416,-3414,-3414,-3414,-3416,-3417,-3423,-3425,-3429,-3431,-3431,-3433,-3436,-3439,-3437,-3436,-3438,-3440,-3440,-3440,-3443,-3448,-3460,-3458,-3463,-3460,-3464,-3465,-3466,-3462,-3461,-3466,-3468,-3473,-3476,-3478,-3478,-3479,-3479,-3480,-3483,-3485,-3486,-3487,-3489,-3490,-3492,-3494,-3497,-3500,-3503,-3505,-3509,-3512,-3514,-3515,-3518,-3523,-3527,-3528
73.0479166666667,-2308,-2313,-2321,-2329,-2335,-2340,-2348,-2355,-2357,-2366,-2383,-2403,-2419,-2432,-2437,-2444,-2451,-2459,-2469,-2475,-2481,-2486,-2491,-2495,-2499,-2501,-2505,-2510,-2514,-2518,-2521,-2529,-2530,-2532,-2535,-2540,-2544,-2547,-2545,-2544,-2546,-2553,-2559,-2567,-2575,-2578,-2577,-2586,-2573,-2578,-2579,-2574,-2571,-2573,-2578,-2589,-2594,-2600,-2581,-2605,-2601,-2599,-2596,-2597,-2599,-2598,-2600,-2612,-2620,-2624,-2629,-2631,-2634,-2636,-2638,-2643,-2645,-2653,-2653,-2655,-2658,-2661,-2667,-2664,-2665,-2666,-2665,-2667,-2669,-2671,-2672,-2668,-2669,-2669,-2672,-2676,-2680,-2683,-2685,-2687,-2692,-2695,-2700,-2703,-2708,-2713,-2717,-2720,-2718,-2730,-2731,-2725,-2729,-2733,-2734,-2738,-2739,-2743,-2743,-2745,-2752,-2753,-2759,-2758,-2763,-2767,-2768,-2771,-2777,-2777,-2781,-2785,-2799,-2810,-2810,-2806,-2795,-2800,-2804,-2810,-2829,-2836,-2847,-2842,-2854,-2861,-2865,-2871,-2879,-2884,-2895,-2905,-2910,-2917,-2917,-2918,-2913,-2915,-2917,-2918,-2938,-2930,-2939,-2947,-2947,-2963,-2967,-2969,-2968,-2967,-2981,-2966,-2969,-2967,-2973,-2972,-2965,-2961,-2957,-2956,-2954,-2955,-2953,-2952,-2952,-2952,-2954,-2955,-2958,-2956,-2958,-2959,-2959,-2962,-2961,-2965,-2968,-2967,-2971,-2973,-2977,-2977,-2982,-2983,-2991,-2989,-3000,-2994,-2996,-2998,-3000,-3005,-3010,-3012,-3015,-3020,-3024,-3027,-3032,-3036,-3043,-3047,-3051,-3056,-3061,-3063,-3067,-3070,-3073,-3076,-3079,-3081,-3083,-3084,-3087,-3092,-3094,-3096,-3096,-3099,-3100,-3103,-3104,-3104,-3106,-3108,-3108,-3110,-3113,-3115,-3111,-3110,-3109,-3108,-3107,-3104,-3103,-3141,-3135,-3131,-3138,-3140,-3141,-3142,-3141,-3142,-3141,-3144,-3146,-3148,-3143,-3144,-3146,-3148,-3151,-3151,-3153,-3152,-3152,-3152,-3153,-3155,-3156,-3157,-3157,-3158,-3159,-3160,-3159,-3160,-3160,-3162,-3160,-3162,-3159,-3163,-3164,-3169,-3168,-3169,-3171,-3174,-3176,-3176,-3178,-3178,-3179,-3179,-3180,-3179,-3183,-3185,-3184,-3189,-3188,-3192,-3192,-3196,-3198,-3201,-3203,-3206,-3208,-3213,-3215,-3219,-3221,-3223,-3227,-3229,-3235,-3234,-3242,-3242,-3247,-3252,-3253,-3258,-3262,-3267,-3270,-3275,-3271,-3277,-3280,-3284,-3286,-3291,-3295,-3295,-3295,-3295,-3296,-3297,-3299,-3299,-3302,-3304,-3307,-3308,-3308,-3308,-3310,-3310,-3309,-3311,-3313,-3316,-3315,-3320,-3319,-3320,-3321,-3322,-3324,-3326,-3327,-3326,-3326,-3326,-3330,-3331,-3334,-3337,-3339,-3344,-3347,-3349,-3351,-3356,-3358,-3361,-3362,-3365,-3370,-3373,-3374,-3378,-3381,-3381,-3383,-3385,-3388,-3391,-3390,-3394,-3395,-3395,-3398,-3400,-3402,-3404,-3408,-3408,-3409,-3409,-3412,-3413,-3412,-3414,-3415,-3413,-3412,-3419,-3418,-3421,-3419,-3419,-3421,-3426,-3431,-3435,-3440,-3442,-3443,-3443,-3447,-3449,-3452,-3452,-3455,-3459,-3463,-3465,-3468,-3469,-3470,-3471,-3472,-3471,-3474,-3474,-3477,-3475,-3473,-3479,-3482,-3482,-3485,-3484,-3487,-3488,-3490,-3492,-3493,-3495,-3498,-3498,-3500,-3503,-3507,-3509,-3512,-3516,-3519,-3521,-3525,-3529,-3532,-3535
73.0520833333333,-2303,-2309,-2314,-2319,-2323,-2330,-2339,-2343,-2347,-2353,-2365,-2376,-2384,-2403,-2426,-2428,-2431,-2438,-2444,-2451,-2458,-2472,-2482,-2490,-2495,-2500,-2504,-2509,-2513,-2518,-2522,-2527,-2533,-2538,-2542,-2548,-2555,-2559,-2559,-2564,-2562,-2567,-2583,-2573,-2569,-2571,-2573,-2583,-2592,-2584,-2583,-2583,-2585,-2575,-2574,-2580,-2594,-2600,-2600,-2612,-2611,-2609,-2608,-2610,-2609,-2608,-2613,-2615,-2619,-2623,-2627,-2634,-2637,-2641,-2644,-2646,-2653,-2654,-2653,-2653,-2659,-2664,-2666,-2669,-2670,-2673,-2677,-2678,-2680,-2686,-2687,-2691,-2686,-2678,-2684,-2681,-2683,-2686,-2689,-2691,-2694,-2698,-2702,-2706,-2710,-2715,-2717,-2724,-2729,-2731,-2732,-2734,-2731,-2737,-2739,-2743,-2746,-2746,-2748,-2751,-2753,-2759,-2758,-2762,-2767,-2767,-2772,-2772,-2780,-2780,-2790,-2792,-2794,-2794,-2803,-2807,-2807,-2818,-2817,-2827,-2834,-2837,-2833,-2849,-2851,-2851,-2859,-2855,-2877,-2879,-2884,-2897,-2895,-2906,-2890,-2897,-2906,-2913,-2917,-2921,-2925,-2928,-2930,-2940,-2934,-2942,-2955,-2964,-2970,-2974,-2974,-2976,-2981,-2979,-2981,-2985,-2981,-2977,-2977,-2976,-2973,-2973,-2970,-2964,-2965,-2965,-2963,-2963,-2965,-2965,-2963,-2967,-2967,-2967,-2970,-2970,-2974,-2977,-2980,-2983,-2982,-2984,-2989,-2990,-2992,-2993,-3000,-2999,-2999,-3000,-3002,-3004,-3007,-3010,-3013,-3015,-3019,-3022,-3026,-3032,-3039,-3046,-3049,-3051,-3053,-3059,-3061,-3065,-3069,-3076,-3080,-3081,-3084,-3091,-3095,-3097,-3099,-3104,-3107,-3111,-3112,-3110,-3111,-3111,-3116,-3114,-3116,-3117,-3116,-3119,-3120,-3122,-3118,-3151,-3142,-3144,-3148,-3148,-3144,-3143,-3143,-3141,-3145,-3147,-3148,-3149,-3151,-3150,-3152,-3151,-3153,-3153,-3155,-3156,-3155,-3155,-3158,-3159,-3160,-3160,-3162,-3163,-3162,-3162,-3164,-3165,-3165,-3166,-3167,-3168,-3169,-3168,-3171,-3168,-3173,-3173,-3178,-3175,-3179,-3179,-3178,-3179,-3182,-3183,-3185,-3185,-3185,-3187,-3189,-3190,-3190,-3194,-3196,-3198,-3200,-3202,-3205,-3206,-3209,-3211,-3215,-3218,-3223,-3223,-3226,-3228,-3231,-3234,-3239,-3242,-3245,-3251,-3251,-3255,-3257,-3262,-3265,-3269,-3273,-3273,-3272,-3273,-3276,-3278,-3282,-3286,-3287,-3288,-3288,-3294,-3297,-3297,-3295,-3296,-3298,-3301,-3300,-3302,-3304,-3308,-3309,-3310,-3310,-3311,-3312,-3314,-3317,-3316,-3317,-3319,-3322,-3325,-3326,-3327,-3328,-3329,-3331,-3331,-3334,-3335,-3337,-3339,-3339,-3342,-3346,-3350,-3351,-3355,-3358,-3361,-3362,-3365,-3366,-3368,-3372,-3376,-3381,-3384,-3387,-3387,-3390,-3391,-3397,-3399,-3400,-3404,-3405,-3408,-3410,-3411,-3411,-3411,-3414,-3417,-3418,-3420,-3423,-3425,-3422,-3420,-3422,-3425,-3427,-3428,-3429,-3428,-3429,-3422,-3422,-3434,-3444,-3449,-3453,-3448,-3449,-3449,-3452,-3453,-3456,-3457,-3457,-3460,-3463,-3469,-3470,-3475,-3476,-3478,-3479,-3479,-3480,-3482,-3486,-3484,-3487,-3488,-3491,-3489,-3491,-3493,-3491,-3492,-3494,-3497,-3497,-3499,-3499,-3503,-3508,-3510,-3514,-3516,-3519,-3520,-3524,-3526,-3530,-3534,-3538,-3540
73.05625,-2304,-2309,-2314,-2319,-2324,-2327,-2330,-2334,-2339,-2345,-2349,-2352,-2360,-2367,-2372,-2380,-2392,-2413,-2421,-2430,-2439,-2448,-2456,-2464,-2471,-2487,-2495,-2506,-2515,-2523,-2531,-2536,-2541,-2546,-2553,-2558,-2562,-2566,-2569,-2567,-2563,-2556,-2559,-2561,-2564,-2568,-2577,-2582,-2582,-2579,-2583,-2608,-2608,-2575,-2610,-2610,-2611,-2613,-2614,-2616,-2615,-2617,-2620,-2619,-2618,-2621,-2618,-2620,-2622,-2625,-2627,-2628,-2636,-2641,-2642,-2653,-2653,-2654,-2660,-2665,-2666,-2668,-2672,-2672,-2676,-2679,-2680,-2681,-2686,-2689,-2693,-2694,-2696,-2701,-2696,-2699,-2691,-2694,-2693,-2695,-2700,-2701,-2705,-2709,-2715,-2714,-2718,-2721,-2728,-2728,-2734,-2738,-2743,-2741,-2745,-2748,-2751,-2753,-2759,-2760,-2760,-2764,-2767,-2768,-2770,-2774,-2774,-2783,-2782,-2784,-2790,-2791,-2796,-2800,-2802,-2809,-2808,-2814,-2816,-2829,-2829,-2825,-2833,-2845,-2839,-2851,-2853,-2859,-2871,-2876,-2864,-2865,-2870,-2880,-2886,-2892,-2897,-2903,-2908,-2915,-2925,-2929,-2941,-2938,-2943,-2943,-2949,-2953,-2962,-2970,-2979,-2982,-2983,-2989,-2996,-2997,-2988,-2985,-2989,-2988,-2987,-2985,-2985,-2982,-2979,-2979,-2979,-2982,-2978,-2976,-2975,-2977,-2977,-2983,-2979,-2981,-2979,-2979,-2981,-2982,-2984,-2988,-2992,-2995,-2997,-2998,-2999,-3001,-3002,-3008,-3004,-3006,-3010,-3012,-3014,-3017,-3020,-3023,-3025,-3028,-3031,-3036,-3040,-3045,-3049,-3054,-3057,-3059,-3063,-3069,-3073,-3077,-3082,-3086,-3091,-3096,-3098,-3100,-3105,-3111,-3116,-3119,-3120,-3120,-3121,-3122,-3121,-3123,-3125,-3141,-3146,-3150,-3142,-3150,-3153,-3151,-3156,-3151,-3153,-3151,-3153,-3153,-3152,-3152,-3154,-3153,-3153,-3154,-3155,-3156,-3157,-3158,-3159,-3160,-3161,-3163,-3164,-3165,-3165,-3165,-3165,-3167,-3169,-3167,-3171,-3171,-3175,-3174,-3176,-3178,-3181,-3178,-3181,-3182,-3184,-3184,-3184,-3184,-3184,-3186,-3187,-3188,-3189,-3190,-3193,-3194,-3195,-3197,-3199,-3200,-3203,-3202,-3208,-3207,-3211,-3212,-3215,-3217,-3220,-3222,-3225,-3227,-3230,-3235,-3235,-3242,-3240,-3247,-3250,-3253,-3255,-3257,-3259,-3265,-3269,-3270,-3272,-3271,-3270,-3270,-3271,-3274,-3276,-3277,-3280,-3282,-3283,-3286,-3288,-3291,-3294,-3296,-3297,-3298,-3299,-3301,-3303,-3305,-3307,-3308,-3309,-3310,-3310,-3312,-3315,-3317,-3319,-3320,-3322,-3325,-3328,-3329,-3329,-3329,-3331,-3331,-3333,-3335,-3338,-3343,-3343,-3347,-3349,-3352,-3353,-3352,-3356,-3362,-3364,-3366,-3369,-3373,-3373,-3374,-3379,-3388,-3392,-3394,-3395,-3396,-3398,-3403,-3408,-3412,-3411,-3413,-3411,-3417,-3415,-3420,-3418,-3423,-3426,-3424,-3422,-3428,-3429,-3430,-3432,-3430,-3432,-3434,-3436,-3436,-3434,-3437,-3439,-3442,-3442,-3447,-3450,-3457,-3457,-3458,-3456,-3454,-3454,-3458,-3461,-3463,-3460,-3462,-3466,-3473,-3478,-3479,-3480,-3481,-3483,-3486,-3487,-3488,-3492,-3492,-3493,-3493,-3494,-3498,-3499,-3500,-3499,-3504,-3507,-3507,-3508,-3510,-3512,-3514,-3515,-3518,-3521,-3524,-3528,-3526,-3532,-3533,-3537,-3538,-3543,-3545
73.0604166666667,-2312,-2316,-2320,-2325,-2329,-2332,-2336,-2337,-2340,-2344,-2349,-2354,-2358,-2362,-2365,-2370,-2376,-2384,-2388,-2395,-2409,-2428,-2448,-2460,-2471,-2480,-2489,-2500,-2510,-2522,-2536,-2545,-2548,-2553,-2555,-2555,-2562,-2562,-2570,-2574,-2581,-2575,-2571,-2568,-2560,-2571,-2562,-2565,-2573,-2585,-2585,-2614,-2618,-2615,-2617,-2617,-2619,-2620,-2621,-2621,-2621,-2622,-2625,-2625,-2627,-2626,-2626,-2626,-2627,-2628,-2629,-2634,-2638,-2640,-2642,-2652,-2656,-2664,-2666,-2672,-2674,-2673,-2670,-2677,-2680,-2687,-2688,-2691,-2694,-2697,-2699,-2699,-2702,-2704,-2707,-2710,-2715,-2716,-2715,-2717,-2717,-2716,-2717,-2718,-2716,-2718,-2722,-2724,-2725,-2729,-2731,-2735,-2737,-2741,-2743,-2747,-2750,-2753,-2757,-2760,-2766,-2772,-2773,-2776,-2778,-2777,-2778,-2784,-2786,-2796,-2790,-2795,-2798,-2801,-2809,-2811,-2811,-2822,-2820,-2831,-2822,-2832,-2849,-2837,-2841,-2843,-2838,-2843,-2846,-2848,-2855,-2863,-2869,-2875,-2882,-2887,-2893,-2899,-2903,-2908,-2913,-2917,-2928,-2942,-2939,-2952,-2955,-2959,-2956,-2963,-2966,-2971,-2981,-2989,-2992,-2999,-2997,-2995,-3007,-3000,-2998,-2998,-2997,-2995,-2992,-2992,-2989,-2989,-2989,-2989,-2988,-2991,-2992,-2986,-2990,-2991,-2994,-2988,-2992,-2994,-2995,-2994,-2994,-2996,-2997,-3002,-3003,-3008,-3006,-3007,-3007,-3008,-3015,-3018,-3024,-3022,-3021,-3023,-3027,-3031,-3035,-3038,-3039,-3041,-3044,-3045,-3050,-3053,-3058,-3063,-3066,-3071,-3076,-3081,-3085,-3088,-3094,-3100,-3104,-3105,-3105,-3109,-3115,-3121,-3131,-3134,-3141,-3142,-3146,-3153,-3155,-3155,-3155,-3154,-3156,-3160,-3158,-3158,-3161,-3160,-3160,-3160,-3161,-3159,-3159,-3160,-3160,-3161,-3160,-3163,-3162,-3163,-3165,-3164,-3166,-3167,-3170,-3169,-3171,-3173,-3173,-3174,-3176,-3179,-3179,-3183,-3183,-3184,-3186,-3187,-3187,-3187,-3187,-3191,-3193,-3192,-3192,-3194,-3193,-3195,-3196,-3196,-3198,-3197,-3201,-3201,-3204,-3204,-3207,-3208,-3210,-3211,-3212,-3215,-3217,-3220,-3222,-3224,-3226,-3229,-3231,-3233,-3237,-3240,-3245,-3248,-3254,-3254,-3258,-3261,-3264,-3261,-3262,-3267,-3272,-3274,-3276,-3277,-3276,-3275,-3274,-3276,-3277,-3279,-3280,-3282,-3283,-3285,-3287,-3289,-3290,-3293,-3294,-3296,-3299,-3302,-3304,-3305,-3307,-3308,-3309,-3309,-3310,-3313,-3317,-3320,-3324,-3325,-3326,-3328,-3331,-3333,-3335,-3336,-3336,-3340,-3343,-3347,-3348,-3351,-3352,-3354,-3357,-3361,-3364,-3364,-3371,-3368,-3371,-3375,-3377,-3382,-3384,-3389,-3390,-3395,-3397,-3398,-3399,-3403,-3404,-3409,-3411,-3415,-3418,-3423,-3427,-3430,-3431,-3433,-3432,-3435,-3433,-3433,-3435,-3437,-3438,-3437,-3438,-3437,-3439,-3440,-3441,-3442,-3446,-3452,-3453,-3455,-3455,-3459,-3459,-3460,-3459,-3460,-3461,-3461,-3462,-3463,-3463,-3465,-3468,-3469,-3471,-3474,-3477,-3480,-3481,-3484,-3482,-3485,-3490,-3494,-3494,-3495,-3496,-3496,-3499,-3500,-3504,-3506,-3509,-3511,-3513,-3518,-3520,-3519,-3522,-3525,-3530,-3531,-3531,-3533,-3535,-3537,-3541,-3539,-3544,-3546,-3550,-3552
73.0645833333333,-2326,-2328,-2331,-2334,-2337,-2340,-2344,-2346,-2348,-2350,-2356,-2359,-2363,-2366,-2369,-2372,-2377,-2382,-2389,-2396,-2405,-2413,-2430,-2457,-2478,-2487,-2496,-2505,-2515,-2529,-2535,-2546,-2554,-2556,-2556,-2556,-2556,-2560,-2567,-2575,-2575,-2580,-2576,-2578,-2589,-2607,-2605,-2606,-2607,-2615,-2617,-2620,-2622,-2626,-2627,-2626,-2631,-2630,-2630,-2627,-2637,-2632,-2632,-2634,-2635,-2638,-2639,-2639,-2635,-2637,-2641,-2643,-2644,-2643,-2648,-2652,-2657,-2661,-2667,-2671,-2676,-2683,-2685,-2688,-2693,-2694,-2698,-2698,-2701,-2701,-2703,-2705,-2710,-2713,-2712,-2717,-2718,-2720,-2722,-2725,-2726,-2729,-2730,-2731,-2733,-2732,-2730,-2729,-2728,-2732,-2734,-2737,-2740,-2741,-2743,-2746,-2750,-2755,-2759,-2763,-2766,-2769,-2771,-2772,-2777,-2781,-2785,-2790,-2794,-2794,-2798,-2797,-2803,-2808,-2806,-2808,-2814,-2815,-2819,-2821,-2827,-2831,-2833,-2836,-2834,-2837,-2838,-2840,-2846,-2851,-2857,-2860,-2864,-2870,-2881,-2886,-2893,-2896,-2900,-2905,-2909,-2911,-2916,-2926,-2943,-2951,-2954,-2953,-2964,-2970,-2970,-2970,-2972,-2980,-2987,-3001,-2995,-3001,-3012,-3004,-3011,-3007,-3008,-3011,-3006,-3006,-3003,-3002,-3000,-3003,-3001,-2999,-3000,-3000,-3000,-3001,-3001,-3005,-3004,-3002,-3004,-3001,-3000,-3001,-3005,-3006,-3004,-3008,-3014,-3018,-3024,-3029,-3032,-3033,-3032,-3031,-3029,-3032,-3033,-3036,-3039,-3044,-3045,-3045,-3046,-3047,-3051,-3054,-3058,-3058,-3061,-3064,-3068,-3072,-3082,-3085,-3092,-3097,-3099,-3101,-3104,-3103,-3123,-3123,-3124,-3127,-3133,-3132,-3143,-3145,-3149,-3155,-3155,-3160,-3160,-3162,-3164,-3164,-3166,-3166,-3172,-3170,-3175,-3170,-3170,-3170,-3169,-3168,-3168,-3168,-3170,-3172,-3172,-3173,-3173,-3175,-3175,-3176,-3176,-3178,-3179,-3181,-3184,-3186,-3186,-3188,-3187,-3189,-3188,-3191,-3194,-3193,-3196,-3197,-3200,-3198,-3203,-3204,-3204,-3205,-3206,-3211,-3209,-3210,-3212,-3212,-3213,-3215,-3214,-3215,-3220,-3221,-3223,-3224,-3224,-3226,-3228,-3230,-3234,-3235,-3240,-3242,-3245,-3244,-3247,-3246,-3247,-3251,-3253,-3254,-3259,-3258,-3258,-3262,-3267,-3273,-3276,-3278,-3281,-3282,-3281,-3281,-3282,-3282,-3283,-3285,-3288,-3289,-3290,-3290,-3291,-3291,-3293,-3295,-3298,-3301,-3304,-3305,-3306,-3308,-3310,-3312,-3314,-3316,-3317,-3320,-3323,-3325,-3328,-3331,-3334,-3336,-3340,-3342,-3343,-3344,-3350,-3351,-3355,-3358,-3362,-3362,-3361,-3365,-3370,-3373,-3377,-3380,-3378,-3381,-3386,-3393,-3393,-3397,-3397,-3399,-3403,-3407,-3409,-3410,-3413,-3416,-3419,-3421,-3425,-3429,-3433,-3434,-3438,-3440,-3440,-3442,-3443,-3442,-3442,-3443,-3445,-3446,-3444,-3450,-3450,-3449,-3448,-3450,-3456,-3460,-3461,-3459,-3460,-3462,-3464,-3466,-3464,-3463,-3464,-3466,-3467,-3469,-3470,-3474,-3475,-3476,-3477,-3478,-3479,-3481,-3483,-3487,-3488,-3488,-3491,-3492,-3494,-3496,-3498,-3500,-3503,-3505,-3508,-3508,-3512,-3517,-3521,-3522,-3525,-3530,-3533,-3535,-3538,-3542,-3541,-3545,-3547,-3551,-3548,-3553,-3552,-3557,-3560,-3560
73.06875,-2339,-2339,-2340,-2342,-2343,-2345,-2348,-2351,-2354,-2359,-2362,-2365,-2369,-2377,-2381,-2382,-2385,-2390,-2395,-2401,-2409,-2415,-2422,-2433,-2449,-2460,-2481,-2505,-2516,-2523,-2533,-2545,-2545,-2551,-2552,-2556,-2562,-2566,-2567,-2570,-2568,-2569,-2582,-2582,-2617,-2617,-2618,-2620,-2624,-2620,-2627,-2626,-2632,-2635,-2636,-2640,-2641,-2643,-2639,-2640,-2639,-2642,-2642,-2640,-2642,-2643,-2647,-2649,-2651,-2649,-2651,-2652,-2652,-2653,-2654,-2656,-2662,-2663,-2667,-2670,-2676,-2679,-2684,-2692,-2695,-2700,-2702,-2706,-2707,-2710,-2710,-2714,-2718,-2718,-2721,-2722,-2723,-2725,-2726,-2729,-2731,-2735,-2736,-2740,-2744,-2743,-2741,-2740,-2738,-2738,-2739,-2743,-2745,-2746,-2747,-2752,-2754,-2755,-2758,-2759,-2764,-2766,-2769,-2772,-2776,-2780,-2785,-2789,-2792,-2794,-2800,-2805,-2810,-2810,-2813,-2816,-2817,-2812,-2818,-2820,-2822,-2825,-2824,-2828,-2830,-2833,-2840,-2843,-2849,-2853,-2855,-2859,-2868,-2874,-2879,-2883,-2890,-2894,-2900,-2905,-2908,-2912,-2915,-2919,-2927,-2932,-2946,-2948,-2956,-2957,-2968,-2971,-2975,-2981,-2981,-2988,-2990,-2994,-2996,-3002,-3010,-3012,-3016,-3017,-3018,-3019,-3017,-3016,-3016,-3018,-3015,-3013,-3012,-3011,-3009,-3011,-3011,-3014,-3014,-3016,-3016,-3016,-3016,-3019,-3016,-3016,-3016,-3019,-3021,-3025,-3035,-3029,-3033,-3035,-3036,-3038,-3039,-3038,-3036,-3039,-3042,-3044,-3045,-3046,-3050,-3052,-3055,-3058,-3059,-3058,-3058,-3060,-3063,-3065,-3070,-3076,-3080,-3083,-3098,-3098,-3105,-3109,-3108,-3114,-3115,-3120,-3125,-3127,-3129,-3138,-3136,-3138,-3141,-3147,-3151,-3158,-3161,-3165,-3170,-3171,-3171,-3177,-3174,-3187,-3177,-3180,-3184,-3180,-3181,-3178,-3182,-3178,-3179,-3181,-3181,-3182,-3183,-3185,-3186,-3187,-3189,-3187,-3190,-3189,-3191,-3192,-3196,-3195,-3198,-3198,-3199,-3201,-3203,-3205,-3206,-3207,-3210,-3212,-3214,-3216,-3217,-3220,-3220,-3221,-3223,-3226,-3227,-3227,-3229,-3228,-3231,-3229,-3232,-3229,-3234,-3237,-3239,-3241,-3242,-3243,-3245,-3247,-3247,-3250,-3252,-3251,-3252,-3251,-3251,-3247,-3249,-3254,-3257,-3259,-3262,-3267,-3270,-3274,-3279,-3283,-3285,-3285,-3287,-3286,-3288,-3289,-3290,-3291,-3293,-3295,-3295,-3296,-3296,-3297,-3299,-3300,-3302,-3304,-3306,-3308,-3311,-3312,-3314,-3316,-3319,-3322,-3323,-3326,-3332,-3335,-3339,-3340,-3344,-3347,-3349,-3352,-3355,-3358,-3361,-3363,-3365,-3370,-3372,-3377,-3378,-3380,-3383,-3386,-3391,-3394,-3397,-3397,-3399,-3400,-3404,-3406,-3411,-3411,-3414,-3417,-3419,-3421,-3422,-3426,-3429,-3432,-3435,-3438,-3439,-3439,-3441,-3444,-3446,-3447,-3447,-3449,-3454,-3457,-3459,-3459,-3461,-3460,-3462,-3465,-3468,-3469,-3468,-3469,-3470,-3472,-3472,-3475,-3473,-3472,-3471,-3477,-3478,-3483,-3479,-3483,-3481,-3485,-3483,-3484,-3486,-3487,-3489,-3490,-3492,-3492,-3496,-3496,-3498,-3501,-3505,-3507,-3507,-3512,-3516,-3518,-3520,-3524,-3526,-3527,-3531,-3534,-3538,-3540,-3543,-3546,-3551,-3553,-3555,-3557,-3559,-3561,-3561,-3565,-3566,-3568
73.0729166666667,-2350,-2351,-2350,-2351,-2350,-2352,-2354,-2356,-2361,-2363,-2369,-2373,-2376,-2381,-2386,-2391,-2397,-2401,-2404,-2408,-2410,-2411,-2422,-2430,-2430,-2449,-2462,-2470,-2490,-2502,-2518,-2519,-2537,-2561,-2573,-2574,-2583,-2580,-2572,-2562,-2568,-2610,-2613,-2618,-2620,-2625,-2624,-2637,-2631,-2635,-2635,-2636,-2638,-2645,-2648,-2648,-2650,-2653,-2648,-2649,-2651,-2652,-2650,-2650,-2652,-2650,-2652,-2658,-2659,-2659,-2660,-2659,-2660,-2664,-2668,-2669,-2671,-2674,-2674,-2675,-2681,-2681,-2686,-2690,-2695,-2699,-2703,-2707,-2712,-2717,-2719,-2723,-2725,-2725,-2728,-2729,-2727,-2729,-2733,-2733,-2733,-2737,-2739,-2744,-2748,-2750,-2752,-2752,-2755,-2753,-2749,-2752,-2750,-2753,-2755,-2757,-2758,-2762,-2760,-2764,-2768,-2768,-2772,-2775,-2775,-2781,-2784,-2787,-2790,-2794,-2799,-2803,-2805,-2808,-2811,-2813,-2813,-2814,-2816,-2822,-2826,-2830,-2834,-2837,-2838,-2842,-2843,-2845,-2849,-2854,-2858,-2862,-2868,-2873,-2880,-2885,-2889,-2893,-2896,-2901,-2907,-2911,-2916,-2919,-2926,-2929,-2934,-2943,-2949,-2954,-2956,-2963,-2966,-2970,-2981,-2983,-2984,-2990,-2991,-3000,-2996,-3002,-3010,-3012,-3017,-3018,-3020,-3021,-3021,-3021,-3022,-3022,-3026,-3022,-3024,-3022,-3023,-3021,-3026,-3023,-3025,-3024,-3024,-3025,-3027,-3027,-3030,-3033,-3036,-3036,-3034,-3035,-3038,-3036,-3037,-3042,-3044,-3043,-3046,-3046,-3048,-3049,-3048,-3051,-3053,-3055,-3054,-3056,-3060,-3062,-3064,-3062,-3061,-3068,-3078,-3081,-3083,-3086,-3090,-3096,-3100,-3103,-3103,-3106,-3108,-3109,-3116,-3116,-3121,-3123,-3127,-3131,-3135,-3140,-3143,-3145,-3148,-3150,-3158,-3162,-3167,-3170,-3174,-3181,-3181,-3181,-3193,-3181,-3189,-3184,-3192,-3187,-3191,-3193,-3192,-3191,-3193,-3194,-3195,-3195,-3194,-3196,-3196,-3197,-3200,-3202,-3204,-3203,-3205,-3206,-3206,-3208,-3213,-3213,-3216,-3219,-3221,-3219,-3221,-3221,-3224,-3226,-3231,-3232,-3237,-3239,-3239,-3240,-3242,-3244,-3244,-3242,-3243,-3244,-3247,-3247,-3248,-3250,-3253,-3254,-3251,-3253,-3255,-3257,-3257,-3257,-3258,-3260,-3260,-3255,-3256,-3254,-3255,-3259,-3262,-3268,-3271,-3275,-3277,-3281,-3284,-3286,-3287,-3288,-3290,-3292,-3294,-3295,-3297,-3298,-3299,-3300,-3301,-3301,-3302,-3304,-3305,-3308,-3312,-3311,-3315,-3316,-3318,-3319,-3321,-3324,-3329,-3333,-3336,-3340,-3343,-3344,-3344,-3345,-3348,-3352,-3357,-3359,-3364,-3368,-3373,-3378,-3382,-3384,-3386,-3389,-3392,-3392,-3399,-3401,-3403,-3406,-3408,-3409,-3411,-3411,-3417,-3420,-3421,-3424,-3426,-3427,-3429,-3431,-3434,-3438,-3441,-3442,-3444,-3443,-3446,-3444,-3446,-3448,-3451,-3453,-3454,-3456,-3460,-3463,-3464,-3466,-3468,-3469,-3470,-3472,-3473,-3474,-3475,-3476,-3476,-3476,-3476,-3477,-3478,-3483,-3484,-3488,-3489,-3491,-3491,-3488,-3488,-3489,-3492,-3493,-3495,-3495,-3500,-3501,-3504,-3505,-3507,-3509,-3512,-3513,-3516,-3520,-3520,-3524,-3525,-3527,-3527,-3531,-3533,-3536,-3539,-3542,-3545,-3548,-3550,-3551,-3555,-3558,-3564,-3569,-3574,-3574,-3577,-3580
73.0770833333333,-2369,-2362,-2363,-2363,-2363,-2367,-2369,-2370,-2375,-2378,-2381,-2386,-2390,-2394,-2395,-2399,-2405,-2412,-2419,-2428,-2427,-2427,-2424,-2430,-2436,-2433,-2426,-2490,-2498,-2492,-2507,-2515,-2520,-2540,-2545,-2560,-2558,-2599,-2604,-2611,-2610,-2611,-2612,-2622,-2627,-2632,-2635,-2638,-2638,-2642,-2639,-2641,-2639,-2644,-2652,-2657,-2658,-2661,-2663,-2665,-2663,-2660,-2663,-2664,-2658,-2658,-2667,-2668,-2664,-2672,-2670,-2671,-2671,-2672,-2670,-2674,-2676,-2682,-2682,-2688,-2690,-2692,-2695,-2699,-2701,-2702,-2705,-2709,-2713,-2715,-2720,-2722,-2726,-2731,-2735,-2735,-2739,-2741,-2741,-2741,-2744,-2748,-2747,-2749,-2752,-2753,-2754,-2759,-2760,-2760,-2760,-2760,-2759,-2761,-2765,-2764,-2767,-2767,-2770,-2770,-2770,-2773,-2776,-2779,-2782,-2785,-2786,-2790,-2794,-2799,-2800,-2801,-2802,-2805,-2806,-2809,-2815,-2817,-2820,-2822,-2825,-2828,-2833,-2838,-2842,-2848,-2851,-2854,-2857,-2859,-2862,-2866,-2871,-2877,-2883,-2887,-2892,-2896,-2899,-2903,-2906,-2910,-2913,-2919,-2924,-2934,-2934,-2939,-2941,-2945,-2953,-2955,-2957,-2962,-2969,-2973,-2984,-2994,-3004,-3004,-3001,-3006,-3006,-3008,-3012,-3014,-3020,-3019,-3021,-3024,-3028,-3031,-3033,-3037,-3039,-3037,-3039,-3039,-3035,-3033,-3037,-3036,-3036,-3036,-3036,-3036,-3036,-3037,-3039,-3040,-3045,-3044,-3045,-3043,-3046,-3045,-3043,-3047,-3046,-3049,-3053,-3056,-3060,-3060,-3062,-3060,-3058,-3059,-3062,-3061,-3066,-3074,-3076,-3077,-3079,-3080,-3083,-3086,-3094,-3093,-3095,-3096,-3099,-3102,-3104,-3108,-3111,-3114,-3116,-3117,-3122,-3125,-3127,-3131,-3132,-3136,-3138,-3141,-3143,-3148,-3150,-3156,-3160,-3166,-3169,-3176,-3178,-3184,-3191,-3186,-3197,-3193,-3205,-3201,-3199,-3199,-3204,-3200,-3202,-3204,-3203,-3206,-3207,-3209,-3210,-3210,-3212,-3211,-3214,-3215,-3217,-3218,-3222,-3221,-3222,-3224,-3227,-3230,-3232,-3234,-3236,-3236,-3237,-3239,-3240,-3245,-3248,-3255,-3256,-3257,-3254,-3256,-3258,-3257,-3257,-3256,-3261,-3261,-3263,-3260,-3264,-3263,-3262,-3261,-3266,-3266,-3266,-3269,-3267,-3267,-3268,-3268,-3269,-3264,-3264,-3268,-3272,-3277,-3279,-3282,-3285,-3287,-3288,-3289,-3291,-3292,-3294,-3294,-3297,-3300,-3301,-3303,-3305,-3308,-3309,-3310,-3314,-3316,-3317,-3318,-3321,-3323,-3327,-3328,-3330,-3333,-3336,-3337,-3337,-3341,-3343,-3345,-3349,-3352,-3356,-3359,-3361,-3363,-3367,-3370,-3374,-3380,-3385,-3389,-3392,-3395,-3398,-3402,-3407,-3409,-3411,-3414,-3418,-3419,-3420,-3423,-3428,-3426,-3430,-3429,-3430,-3431,-3435,-3435,-3438,-3439,-3442,-3442,-3441,-3445,-3447,-3448,-3449,-3451,-3451,-3460,-3455,-3456,-3457,-3462,-3463,-3466,-3468,-3472,-3472,-3475,-3474,-3476,-3477,-3478,-3477,-3477,-3481,-3483,-3487,-3489,-3496,-3495,-3496,-3495,-3494,-3494,-3496,-3496,-3499,-3503,-3507,-3509,-3510,-3512,-3514,-3516,-3516,-3517,-3520,-3522,-3522,-3525,-3527,-3530,-3532,-3533,-3533,-3535,-3536,-3542,-3545,-3546,-3547,-3549,-3552,-3554,-3558,-3562,-3567,-3570,-3574,-3578,-3583,-3584
73.08125,-2380,-2386,-2401,-2396,-2399,-2397,-2389,-2385,-2389,-2391,-2392,-2399,-2400,-2400,-2410,-2418,-2421,-2422,-2421,-2422,-2424,-2444,-2442,-2437,-2438,-2446,-2450,-2449,-2445,-2455,-2479,-2532,-2479,-2498,-2546,-2546,-2613,-2603,-2574,-2574,-2623,-2625,-2628,-2625,-2641,-2637,-2642,-2651,-2652,-2650,-2648,-2652,-2653,-2658,-2658,-2659,-2661,-2666,-2673,-2678,-2674,-2683,-2673,-2676,-2677,-2671,-2671,-2677,-2680,-2682,-2681,-2688,-2683,-2682,-2683,-2680,-2684,-2685,-2691,-2691,-2698,-2700,-2702,-2702,-2706,-2709,-2714,-2715,-2718,-2720,-2724,-2728,-2728,-2730,-2733,-2737,-2740,-2744,-2748,-2749,-2749,-2751,-2751,-2753,-2755,-2757,-2759,-2761,-2761,-2766,-2769,-2771,-2774,-2773,-2776,-2775,-2779,-2774,-2776,-2779,-2781,-2780,-2786,-2784,-2786,-2788,-2793,-2793,-2793,-2797,-2802,-2803,-2806,-2810,-2815,-2819,-2820,-2822,-2824,-2827,-2830,-2832,-2835,-2838,-2842,-2848,-2853,-2857,-2860,-2863,-2866,-2871,-2874,-2877,-2882,-2887,-2894,-2898,-2901,-2905,-2909,-2913,-2917,-2920,-2924,-2929,-2933,-2937,-2943,-2949,-2948,-2953,-2957,-2960,-2966,-2969,-2974,-2988,-2988,-2995,-3003,-3003,-3005,-3000,-3002,-3005,-3010,-3016,-3018,-3022,-3031,-3035,-3040,-3042,-3045,-3046,-3044,-3050,-3051,-3053,-3054,-3050,-3047,-3049,-3050,-3046,-3047,-3049,-3051,-3049,-3052,-3056,-3060,-3057,-3058,-3058,-3058,-3056,-3059,-3058,-3059,-3062,-3067,-3064,-3063,-3061,-3061,-3075,-3076,-3076,-3079,-3079,-3081,-3079,-3080,-3082,-3083,-3086,-3089,-3092,-3093,-3097,-3097,-3100,-3100,-3104,-3106,-3111,-3114,-3117,-3120,-3122,-3124,-3126,-3128,-3131,-3132,-3136,-3137,-3139,-3142,-3146,-3148,-3152,-3154,-3159,-3167,-3168,-3175,-3178,-3189,-3190,-3203,-3198,-3206,-3213,-3203,-3207,-3210,-3225,-3213,-3214,-3217,-3217,-3218,-3219,-3221,-3222,-3224,-3225,-3226,-3228,-3230,-3233,-3234,-3239,-3235,-3240,-3239,-3239,-3240,-3244,-3248,-3250,-3252,-3250,-3252,-3259,-3261,-3263,-3263,-3267,-3268,-3265,-3268,-3271,-3273,-3273,-3273,-3273,-3272,-3272,-3274,-3275,-3273,-3274,-3272,-3275,-3274,-3276,-3278,-3278,-3280,-3280,-3281,-3278,-3279,-3281,-3286,-3288,-3290,-3289,-3291,-3292,-3295,-3296,-3296,-3297,-3298,-3300,-3304,-3305,-3308,-3310,-3313,-3315,-3317,-3318,-3320,-3324,-3326,-3328,-3330,-3332,-3334,-3338,-3341,-3343,-3347,-3347,-3351,-3350,-3356,-3358,-3363,-3364,-3367,-3369,-3373,-3373,-3377,-3380,-3384,-3388,-3394,-3398,-3404,-3407,-3412,-3413,-3415,-3417,-3421,-3423,-3425,-3427,-3431,-3430,-3431,-3432,-3432,-3433,-3433,-3436,-3438,-3439,-3439,-3441,-3441,-3445,-3447,-3450,-3450,-3450,-3452,-3452,-3454,-3455,-3458,-3462,-3464,-3466,-3470,-3476,-3477,-3477,-3478,-3478,-3483,-3485,-3490,-3490,-3492,-3491,-3492,-3494,-3497,-3497,-3498,-3497,-3497,-3498,-3501,-3506,-3507,-3511,-3514,-3517,-3518,-3518,-3521,-3522,-3524,-3525,-3527,-3529,-3531,-3539,-3540,-3539,-3541,-3542,-3543,-3544,-3548,-3552,-3550,-3553,-3552,-3553,-3557,-3558,-3560,-3564,-3568,-3570,-3570,-3571,-3580,-3584
73.0854166666667,-2471,-2473,-2462,-2470,-2476,-2467,-2461,-2467,-2454,-2450,-2429,-2412,-2411,-2419,-2416,-2418,-2420,-2422,-2420,-2427,-2430,-2430,-2432,-2427,-2451,-2455,-2450,-2449,-2451,-2476,-2465,-2472,-2472,-2513,-2489,-2544,-2535,-2559,-2583,-2571,-2589,-2601,-2630,-2637,-2652,-2643,-2655,-2657,-2651,-2661,-2662,-2666,-2667,-2668,-2674,-2671,-2678,-2676,-2683,-2685,-2686,-2686,-2690,-2684,-2680,-2689,-2678,-2688,-2690,-2693,-2696,-2699,-2702,-2698,-2706,-2693,-2696,-2696,-2702,-2703,-2704,-2706,-2710,-2712,-2714,-2718,-2719,-2722,-2723,-2728,-2729,-2731,-2735,-2738,-2737,-2739,-2742,-2746,-2748,-2751,-2755,-2757,-2759,-2757,-2760,-2760,-2762,-2766,-2766,-2768,-2772,-2775,-2777,-2779,-2780,-2784,-2787,-2787,-2787,-2787,-2784,-2791,-2797,-2797,-2796,-2794,-2794,-2797,-2799,-2803,-2807,-2811,-2815,-2817,-2820,-2822,-2823,-2827,-2831,-2834,-2836,-2838,-2840,-2843,-2847,-2851,-2855,-2858,-2862,-2865,-2869,-2873,-2877,-2880,-2884,-2888,-2892,-2897,-2903,-2907,-2912,-2917,-2919,-2924,-2927,-2933,-2943,-2945,-2945,-2948,-2950,-2951,-2955,-2960,-2964,-2966,-2973,-2981,-2989,-3002,-2987,-2995,-3003,-3008,-3004,-3006,-3012,-3012,-3015,-3020,-3022,-3026,-3033,-3039,-3046,-3050,-3055,-3057,-3057,-3060,-3060,-3062,-3064,-3065,-3065,-3065,-3061,-3060,-3059,-3061,-3063,-3061,-3060,-3064,-3063,-3069,-3064,-3063,-3064,-3066,-3061,-3061,-3064,-3070,-3071,-3073,-3073,-3074,-3074,-3082,-3079,-3083,-3082,-3084,-3085,-3086,-3089,-3090,-3093,-3093,-3095,-3094,-3097,-3098,-3100,-3100,-3106,-3107,-3110,-3112,-3115,-3119,-3122,-3123,-3124,-3126,-3130,-3133,-3135,-3137,-3143,-3142,-3146,-3147,-3151,-3154,-3157,-3160,-3164,-3166,-3169,-3172,-3177,-3185,-3185,-3196,-3194,-3206,-3210,-3213,-3216,-3225,-3224,-3221,-3230,-3228,-3230,-3233,-3233,-3233,-3236,-3236,-3238,-3240,-3243,-3244,-3245,-3247,-3248,-3247,-3248,-3253,-3252,-3254,-3255,-3257,-3260,-3262,-3263,-3264,-3266,-3269,-3268,-3270,-3269,-3271,-3274,-3279,-3280,-3281,-3283,-3281,-3281,-3280,-3281,-3282,-3283,-3281,-3284,-3282,-3284,-3284,-3286,-3287,-3289,-3290,-3291,-3290,-3292,-3293,-3293,-3294,-3296,-3298,-3299,-3302,-3301,-3305,-3306,-3308,-3307,-3308,-3314,-3315,-3317,-3320,-3322,-3323,-3323,-3324,-3327,-3328,-3333,-3335,-3338,-3341,-3344,-3347,-3352,-3354,-3358,-3360,-3363,-3366,-3370,-3374,-3377,-3380,-3382,-3384,-3385,-3387,-3391,-3391,-3395,-3396,-3400,-3403,-3406,-3411,-3415,-3418,-3418,-3423,-3425,-3428,-3428,-3430,-3428,-3430,-3428,-3427,-3428,-3433,-3436,-3437,-3438,-3443,-3445,-3447,-3448,-3451,-3453,-3455,-3456,-3455,-3459,-3462,-3464,-3465,-3469,-3473,-3480,-3480,-3480,-3480,-3482,-3483,-3485,-3487,-3491,-3493,-3495,-3496,-3498,-3501,-3504,-3502,-3506,-3503,-3506,-3508,-3514,-3516,-3517,-3519,-3521,-3520,-3522,-3527,-3534,-3534,-3535,-3533,-3532,-3535,-3538,-3549,-3550,-3551,-3555,-3555,-3554,-3557,-3558,-3560,-3560,-3563,-3565,-3565,-3566,-3567,-3567,-3569,-3570,-3572,-3575,-3577,-3579,-3582
73.0895833333333,-2529,-2541,-2567,-2556,-2555,-2536,-2528,-2518,-2518,-2511,-2499,-2486,-2445,-2417,-2419,-2420,-2420,-2427,-2417,-2418,-2435,-2432,-2441,-2449,-2453,-2455,-2453,-2459,-2463,-2464,-2477,-2470,-2486,-2492,-2521,-2543,-2535,-2548,-2554,-2558,-2560,-2570,-2580,-2583,-2607,-2621,-2660,-2634,-2647,-2653,-2658,-2656,-2652,-2679,-2677,-2678,-2684,-2690,-2685,-2701,-2697,-2701,-2695,-2700,-2702,-2703,-2703,-2701,-2705,-2703,-2708,-2709,-2708,-2715,-2716,-2724,-2710,-2711,-2710,-2718,-2719,-2717,-2723,-2724,-2726,-2729,-2725,-2732,-2732,-2736,-2737,-2740,-2740,-2743,-2746,-2745,-2753,-2750,-2754,-2755,-2757,-2760,-2760,-2765,-2768,-2770,-2771,-2776,-2775,-2780,-2781,-2782,-2785,-2784,-2783,-2785,-2789,-2792,-2791,-2792,-2794,-2796,-2796,-2797,-2800,-2801,-2804,-2807,-2810,-2811,-2814,-2818,-2821,-2823,-2825,-2828,-2831,-2832,-2835,-2838,-2840,-2843,-2846,-2850,-2851,-2855,-2858,-2861,-2863,-2867,-2871,-2876,-2879,-2883,-2886,-2891,-2894,-2897,-2903,-2908,-2912,-2917,-2922,-2928,-2934,-2936,-2939,-2941,-2946,-2951,-2955,-2955,-2958,-2961,-2965,-2969,-2974,-2979,-2981,-2993,-2996,-3006,-3001,-3003,-3011,-3007,-3013,-3017,-3016,-3021,-3022,-3025,-3028,-3033,-3035,-3042,-3044,-3053,-3056,-3061,-3064,-3068,-3070,-3071,-3072,-3072,-3072,-3075,-3075,-3074,-3074,-3075,-3074,-3073,-3076,-3077,-3082,-3087,-3089,-3089,-3097,-3060,-3105,-3080,-3082,-3080,-3081,-3080,-3082,-3080,-3082,-3081,-3082,-3084,-3087,-3087,-3088,-3095,-3105,-3097,-3093,-3099,-3099,-3098,-3099,-3100,-3103,-3104,-3106,-3109,-3111,-3115,-3118,-3120,-3122,-3124,-3127,-3130,-3132,-3137,-3139,-3143,-3145,-3146,-3149,-3151,-3153,-3157,-3159,-3160,-3170,-3166,-3171,-3175,-3176,-3180,-3187,-3186,-3195,-3198,-3201,-3206,-3214,-3219,-3225,-3231,-3242,-3236,-3242,-3238,-3242,-3243,-3245,-3246,-3249,-3251,-3253,-3254,-3255,-3257,-3257,-3259,-3259,-3262,-3265,-3266,-3266,-3268,-3269,-3269,-3273,-3275,-3277,-3278,-3279,-3279,-3281,-3280,-3282,-3284,-3287,-3288,-3288,-3288,-3288,-3289,-3290,-3291,-3291,-3291,-3293,-3295,-3296,-3297,-3298,-3299,-3297,-3300,-3300,-3301,-3303,-3304,-3305,-3308,-3309,-3310,-3310,-3311,-3314,-3317,-3322,-3322,-3321,-3321,-3323,-3322,-3324,-3326,-3328,-3330,-3333,-3336,-3338,-3340,-3341,-3346,-3348,-3351,-3353,-3357,-3360,-3365,-3368,-3372,-3375,-3379,-3382,-3384,-3388,-3390,-3393,-3394,-3397,-3399,-3400,-3401,-3402,-3404,-3405,-3408,-3410,-3415,-3417,-3418,-3418,-3420,-3425,-3430,-3432,-3434,-3435,-3437,-3437,-3438,-3437,-3438,-3440,-3445,-3446,-3447,-3451,-3453,-3456,-3456,-3460,-3461,-3463,-3462,-3464,-3467,-3472,-3475,-3480,-3481,-3481,-3482,-3484,-3485,-3488,-3491,-3493,-3495,-3498,-3499,-3502,-3506,-3509,-3513,-3516,-3517,-3518,-3520,-3524,-3521,-3524,-3524,-3526,-3530,-3533,-3544,-3543,-3546,-3543,-3545,-3546,-3551,-3552,-3555,-3557,-3558,-3562,-3563,-3567,-3566,-3567,-3568,-3572,-3573,-3575,-3573,-3572,-3571,-3575,-3576,-3581,-3576,-3565,-3571,-3574,-3569
73.09375,-2587,-2586,-2597,-2592,-2591,-2592,-2585,-2579,-2572,-2549,-2509,-2490,-2471,-2451,-2436,-2437,-2431,-2417,-2410,-2426,-2420,-2418,-2418,-2447,-2449,-2450,-2454,-2479,-2458,-2490,-2493,-2475,-2479,-2494,-2496,-2521,-2538,-2562,-2560,-2570,-2573,-2588,-2585,-2590,-2598,-2616,-2618,-2640,-2653,-2651,-2659,-2670,-2664,-2659,-2667,-2690,-2672,-2671,-2678,-2703,-2700,-2705,-2698,-2697,-2719,-2714,-2703,-2717,-2727,-2719,-2716,-2719,-2718,-2731,-2733,-2728,-2727,-2733,-2725,-2725,-2718,-2729,-2733,-2730,-2738,-2732,-2738,-2740,-2743,-2748,-2749,-2748,-2750,-2756,-2755,-2757,-2758,-2762,-2762,-2768,-2768,-2772,-2771,-2774,-2772,-2776,-2778,-2780,-2781,-2784,-2786,-2788,-2789,-2793,-2792,-2790,-2791,-2793,-2796,-2797,-2800,-2802,-2803,-2805,-2805,-2808,-2811,-2812,-2815,-2818,-2819,-2820,-2823,-2825,-2828,-2831,-2834,-2837,-2841,-2843,-2847,-2850,-2854,-2856,-2858,-2862,-2865,-2867,-2870,-2873,-2877,-2879,-2882,-2885,-2889,-2893,-2897,-2901,-2905,-2910,-2914,-2919,-2924,-2925,-2930,-2934,-2939,-2943,-2953,-2952,-2954,-2959,-2962,-2963,-2970,-2972,-2975,-2975,-2985,-2985,-2991,-3003,-2997,-3011,-3009,-3011,-3016,-3012,-3018,-3023,-3023,-3027,-3027,-3032,-3033,-3036,-3038,-3044,-3049,-3052,-3060,-3067,-3070,-3074,-3079,-3080,-3081,-3085,-3083,-3083,-3086,-3082,-3087,-3089,-3088,-3096,-3095,-3094,-3097,-3095,-3102,-3090,-3101,-3097,-3087,-3086,-3087,-3090,-3086,-3089,-3089,-3090,-3092,-3091,-3091,-3093,-3094,-3096,-3098,-3099,-3099,-3101,-3102,-3102,-3103,-3104,-3106,-3107,-3107,-3107,-3110,-3114,-3117,-3120,-3123,-3126,-3129,-3131,-3132,-3135,-3137,-3139,-3142,-3144,-3147,-3151,-3152,-3155,-3159,-3161,-3165,-3166,-3169,-3174,-3180,-3183,-3183,-3185,-3189,-3194,-3195,-3201,-3201,-3204,-3209,-3213,-3220,-3223,-3224,-3224,-3236,-3238,-3253,-3246,-3249,-3255,-3258,-3261,-3263,-3266,-3266,-3268,-3265,-3266,-3267,-3267,-3268,-3271,-3274,-3275,-3277,-3278,-3280,-3282,-3286,-3287,-3287,-3289,-3290,-3290,-3290,-3291,-3293,-3295,-3294,-3296,-3294,-3296,-3295,-3298,-3299,-3299,-3301,-3303,-3304,-3305,-3307,-3309,-3311,-3312,-3315,-3312,-3314,-3316,-3318,-3321,-3322,-3323,-3324,-3325,-3326,-3327,-3328,-3330,-3331,-3333,-3334,-3338,-3336,-3341,-3341,-3345,-3348,-3349,-3351,-3353,-3353,-3356,-3359,-3360,-3364,-3367,-3369,-3373,-3376,-3380,-3383,-3385,-3389,-3391,-3391,-3395,-3398,-3400,-3402,-3406,-3408,-3411,-3409,-3408,-3409,-3413,-3415,-3415,-3416,-3418,-3421,-3424,-3429,-3430,-3434,-3437,-3440,-3441,-3443,-3443,-3446,-3447,-3447,-3446,-3452,-3453,-3457,-3459,-3461,-3462,-3466,-3468,-3472,-3477,-3480,-3479,-3480,-3480,-3482,-3483,-3485,-3488,-3491,-3499,-3502,-3505,-3504,-3506,-3509,-3515,-3517,-3518,-3520,-3524,-3524,-3528,-3531,-3534,-3533,-3533,-3532,-3534,-3537,-3543,-3548,-3551,-3553,-3552,-3554,-3558,-3569,-3563,-3566,-3565,-3569,-3568,-3571,-3570,-3573,-3574,-3575,-3576,-3583,-3581,-3586,-3586,-3583,-3579,-3709,-3574,-3568,-3568,-3578,-3579
73.0979166666667,-2641,-2625,-2597,-2614,-2638,-2622,-2607,-2598,-2587,-2576,-2569,-2557,-2540,-2523,-2482,-2439,-2433,-2436,-2462,-2487,-2464,-2450,-2456,-2449,-2452,-2459,-2460,-2466,-2475,-2479,-2491,-2497,-2502,-2507,-2511,-2521,-2534,-2539,-2563,-2565,-2573,-2581,-2597,-2593,-2599,-2608,-2618,-2628,-2649,-2657,-2659,-2665,-2678,-2669,-2670,-2675,-2684,-2681,-2685,-2685,-2680,-2686,-2695,-2688,-2695,-2696,-2704,-2722,-2719,-2708,-2743,-2726,-2740,-2745,-2736,-2735,-2733,-2739,-2741,-2739,-2742,-2740,-2738,-2738,-2740,-2744,-2745,-2753,-2750,-2756,-2757,-2756,-2763,-2761,-2762,-2763,-2767,-2769,-2774,-2775,-2777,-2778,-2781,-2783,-2784,-2786,-2791,-2789,-2789,-2785,-2786,-2782,-2784,-2788,-2792,-2794,-2797,-2798,-2798,-2801,-2806,-2808,-2812,-2815,-2815,-2816,-2820,-2820,-2822,-2827,-2829,-2831,-2832,-2834,-2835,-2837,-2841,-2845,-2847,-2850,-2854,-2856,-2860,-2862,-2866,-2869,-2871,-2873,-2876,-2879,-2882,-2884,-2886,-2895,-2898,-2901,-2903,-2906,-2909,-2914,-2916,-2919,-2924,-2928,-2930,-2936,-2938,-2943,-2946,-2948,-2952,-2955,-2962,-2964,-2968,-2973,-2974,-2978,-2983,-2986,-2987,-2996,-2993,-3004,-3006,-3005,-3008,-3013,-3022,-3019,-3023,-3025,-3028,-3034,-3037,-3039,-3040,-3041,-3044,-3048,-3053,-3055,-3062,-3067,-3072,-3076,-3079,-3080,-3084,-3089,-3093,-3094,-3100,-3101,-3103,-3106,-3107,-3108,-3106,-3116,-3112,-3109,-3107,-3097,-3093,-3095,-3096,-3097,-3096,-3098,-3101,-3103,-3098,-3094,-3098,-3097,-3100,-3100,-3100,-3103,-3104,-3108,-3105,-3103,-3105,-3106,-3108,-3111,-3112,-3113,-3114,-3117,-3119,-3122,-3123,-3124,-3126,-3129,-3132,-3133,-3134,-3137,-3141,-3143,-3146,-3149,-3153,-3155,-3158,-3160,-3164,-3167,-3170,-3173,-3174,-3180,-3180,-3184,-3185,-3191,-3194,-3196,-3199,-3203,-3205,-3209,-3211,-3215,-3221,-3219,-3220,-3220,-3236,-3238,-3244,-3242,-3246,-3251,-3255,-3259,-3265,-3268,-3273,-3272,-3270,-3272,-3274,-3276,-3276,-3276,-3279,-3282,-3282,-3285,-3287,-3289,-3291,-3293,-3295,-3294,-3295,-3298,-3299,-3300,-3301,-3302,-3303,-3303,-3304,-3304,-3304,-3305,-3307,-3308,-3309,-3310,-3312,-3313,-3314,-3317,-3320,-3323,-3326,-3330,-3331,-3331,-3333,-3333,-3332,-3335,-3336,-3339,-3338,-3341,-3342,-3344,-3346,-3348,-3352,-3352,-3356,-3358,-3360,-3360,-3363,-3365,-3366,-3370,-3369,-3374,-3372,-3378,-3377,-3381,-3381,-3384,-3384,-3388,-3389,-3392,-3392,-3396,-3398,-3400,-3403,-3405,-3411,-3411,-3412,-3412,-3413,-3413,-3416,-3416,-3417,-3418,-3422,-3423,-3426,-3427,-3431,-3434,-3437,-3442,-3443,-3444,-3446,-3448,-3451,-3453,-3454,-3457,-3458,-3461,-3462,-3466,-3469,-3473,-3476,-3480,-3481,-3480,-3480,-3483,-3488,-3491,-3494,-3492,-3497,-3503,-3506,-3508,-3508,-3513,-3515,-3519,-3521,-3524,-3528,-3532,-3534,-3537,-3537,-3539,-3540,-3542,-3545,-3546,-3549,-3551,-3555,-3556,-3559,-3558,-3563,-3566,-3573,-3571,-3574,-3575,-3577,-3579,-3577,-3574,-3576,-3577,-3573,-3587,-3623,-3636,-3599,-3653,-3616,-3668,-3636,-3666,-3620,-3661,-3618,-3584
73.1020833333333,-2681,-2684,-2684,-2665,-2654,-2624,-2618,-2607,-2579,-2569,-2558,-2558,-2545,-2523,-2510,-2533,-2487,-2503,-2525,-2513,-2531,-2453,-2452,-2454,-2455,-2457,-2459,-2462,-2464,-2467,-2472,-2482,-2489,-2495,-2503,-2505,-2506,-2520,-2528,-2522,-2564,-2546,-2586,-2578,-2603,-2598,-2605,-2625,-2633,-2646,-2658,-2657,-2667,-2667,-2677,-2680,-2680,-2686,-2696,-2688,-2692,-2693,-2691,-2697,-2699,-2705,-2703,-2707,-2712,-2718,-2716,-2719,-2727,-2724,-2725,-2729,-2727,-2731,-2730,-2740,-2760,-2739,-2737,-2764,-2755,-2751,-2760,-2762,-2761,-2760,-2763,-2768,-2766,-2769,-2773,-2775,-2781,-2778,-2779,-2782,-2786,-2787,-2787,-2792,-2785,-2789,-2791,-2790,-2787,-2791,-2793,-2792,-2797,-2797,-2799,-2801,-2804,-2806,-2806,-2809,-2812,-2816,-2818,-2821,-2823,-2826,-2828,-2830,-2831,-2835,-2838,-2839,-2844,-2844,-2844,-2845,-2847,-2849,-2852,-2856,-2859,-2863,-2865,-2869,-2869,-2874,-2881,-2883,-2885,-2889,-2892,-2894,-2897,-2898,-2901,-2904,-2907,-2910,-2913,-2913,-2919,-2922,-2926,-2929,-2932,-2936,-2939,-2943,-2947,-2956,-2955,-2961,-2967,-2967,-2967,-2975,-2976,-2979,-2982,-2986,-2991,-2991,-2990,-3006,-3001,-3004,-3008,-3007,-3013,-3018,-3022,-3025,-3028,-3030,-3032,-3034,-3040,-3044,-3045,-3046,-3050,-3049,-3055,-3058,-3064,-3070,-3075,-3076,-3086,-3090,-3093,-3097,-3098,-3099,-3101,-3102,-3109,-3111,-3116,-3111,-3112,-3112,-3113,-3105,-3107,-3106,-3105,-3104,-3105,-3106,-3105,-3106,-3104,-3105,-3104,-3108,-3106,-3107,-3105,-3107,-3108,-3108,-3109,-3109,-3109,-3110,-3112,-3115,-3116,-3116,-3117,-3119,-3120,-3121,-3123,-3125,-3127,-3130,-3132,-3136,-3137,-3140,-3142,-3145,-3148,-3149,-3152,-3154,-3157,-3160,-3164,-3167,-3170,-3172,-3175,-3179,-3180,-3184,-3186,-3191,-3195,-3197,-3201,-3203,-3205,-3207,-3211,-3213,-3219,-3219,-3224,-3224,-3222,-3226,-3237,-3237,-3248,-3249,-3244,-3248,-3249,-3250,-3257,-3260,-3269,-3271,-3273,-3275,-3278,-3282,-3284,-3285,-3285,-3287,-3290,-3290,-3291,-3294,-3297,-3300,-3301,-3303,-3304,-3305,-3305,-3306,-3307,-3306,-3308,-3309,-3311,-3312,-3313,-3315,-3316,-3318,-3318,-3323,-3321,-3327,-3329,-3329,-3330,-3334,-3336,-3337,-3338,-3341,-3343,-3344,-3345,-3345,-3348,-3351,-3354,-3357,-3359,-3363,-3365,-3366,-3369,-3372,-3373,-3383,-3379,-3384,-3381,-3386,-3385,-3389,-3384,-3390,-3386,-3391,-3392,-3390,-3393,-3394,-3393,-3396,-3398,-3401,-3403,-3401,-3404,-3405,-3407,-3410,-3411,-3413,-3415,-3417,-3419,-3420,-3421,-3422,-3424,-3424,-3427,-3429,-3430,-3432,-3434,-3435,-3437,-3440,-3445,-3447,-3450,-3451,-3454,-3457,-3460,-3464,-3467,-3468,-3470,-3472,-3474,-3475,-3478,-3482,-3483,-3487,-3490,-3494,-3497,-3500,-3502,-3504,-3508,-3511,-3514,-3518,-3519,-3522,-3523,-3527,-3532,-3536,-3538,-3539,-3541,-3546,-3546,-3550,-3550,-3554,-3557,-3558,-3563,-3565,-3569,-3570,-3573,-3574,-3574,-3574,-3574,-3575,-3576,-3580,-3577,-3587,-3580,-3626,-3623,-3644,-3633,-3646,-3633,-3635,-3630,-3635,-3606,-3653,-3618,-3649,-3619,-3623
73.10625,-2693,-2694,-2687,-2686,-2683,-2668,-2636,-2628,-2638,-2675,-2615,-2653,-2694,-2653,-2546,-2489,-2487,-2487,-2554,-2468,-2467,-2468,-2471,-2467,-2467,-2468,-2464,-2465,-2467,-2467,-2468,-2469,-2476,-2482,-2487,-2492,-2497,-2504,-2508,-2515,-2519,-2531,-2550,-2575,-2588,-2608,-2599,-2619,-2606,-2642,-2633,-2640,-2663,-2675,-2674,-2690,-2683,-2684,-2688,-2703,-2692,-2699,-2700,-2701,-2705,-2711,-2711,-2713,-2720,-2729,-2722,-2725,-2724,-2736,-2731,-2735,-2735,-2745,-2737,-2740,-2738,-2738,-2737,-2751,-2737,-2753,-2772,-2777,-2770,-2775,-2781,-2783,-2790,-2785,-2784,-2788,-2792,-2791,-2787,-2789,-2784,-2790,-2790,-2790,-2792,-2791,-2794,-2798,-2801,-2803,-2804,-2801,-2804,-2806,-2807,-2812,-2814,-2815,-2817,-2820,-2821,-2825,-2827,-2828,-2832,-2834,-2836,-2837,-2840,-2842,-2845,-2847,-2847,-2848,-2851,-2853,-2853,-2855,-2856,-2860,-2863,-2868,-2870,-2874,-2879,-2878,-2883,-2888,-2891,-2894,-2896,-2897,-2902,-2904,-2907,-2908,-2910,-2914,-2916,-2919,-2919,-2923,-2927,-2931,-2935,-2938,-2943,-2946,-2952,-2956,-2962,-2964,-2966,-2970,-2971,-2979,-2979,-2980,-2981,-2986,-2992,-2991,-2993,-3008,-3013,-3010,-3012,-3008,-3011,-3014,-3015,-3022,-3026,-3028,-3031,-3035,-3039,-3043,-3045,-3046,-3049,-3048,-3053,-3057,-3061,-3069,-3067,-3072,-3077,-3076,-3084,-3084,-3093,-3100,-3102,-3107,-3111,-3111,-3116,-3117,-3123,-3118,-3124,-3111,-3134,-3130,-3119,-3119,-3117,-3118,-3115,-3113,-3113,-3113,-3115,-3113,-3114,-3112,-3113,-3113,-3115,-3114,-3115,-3116,-3116,-3116,-3118,-3119,-3120,-3118,-3118,-3120,-3121,-3122,-3123,-3124,-3127,-3132,-3139,-3140,-3141,-3141,-3143,-3145,-3149,-3152,-3156,-3156,-3159,-3161,-3163,-3166,-3169,-3172,-3175,-3179,-3179,-3188,-3188,-3192,-3196,-3199,-3201,-3203,-3207,-3206,-3209,-3213,-3213,-3216,-3219,-3221,-3220,-3223,-3226,-3230,-3234,-3231,-3236,-3240,-3251,-3246,-3246,-3251,-3265,-3255,-3260,-3260,-3263,-3265,-3272,-3275,-3283,-3288,-3290,-3291,-3293,-3295,-3298,-3301,-3303,-3306,-3307,-3308,-3308,-3310,-3310,-3311,-3311,-3313,-3315,-3317,-3318,-3319,-3321,-3323,-3327,-3329,-3329,-3331,-3332,-3335,-3337,-3339,-3341,-3343,-3344,-3347,-3349,-3351,-3353,-3354,-3354,-3354,-3355,-3357,-3361,-3365,-3367,-3369,-3372,-3375,-3380,-3384,-3389,-3391,-3394,-3393,-3394,-3394,-3393,-3396,-3394,-3395,-3397,-3398,-3400,-3399,-3400,-3403,-3404,-3406,-3407,-3410,-3412,-3413,-3414,-3416,-3419,-3422,-3423,-3426,-3427,-3428,-3429,-3431,-3430,-3430,-3432,-3434,-3434,-3434,-3437,-3437,-3436,-3440,-3440,-3444,-3447,-3451,-3455,-3458,-3461,-3464,-3466,-3469,-3471,-3475,-3478,-3480,-3481,-3483,-3486,-3490,-3494,-3496,-3499,-3502,-3505,-3507,-3510,-3514,-3516,-3520,-3522,-3527,-3530,-3537,-3539,-3542,-3543,-3546,-3546,-3551,-3554,-3558,-3558,-3561,-3565,-3569,-3570,-3574,-3576,-3575,-3577,-3576,-3577,-3578,-3577,-3579,-3579,-3589,-3593,-3601,-3618,-3608,-3634,-3618,-3633,-3632,-3638,-3641,-3636,-3642,-3642,-3651,-3641,-3663,-3632,-3621
73.1104166666667,-2708,-2715,-2699,-2698,-2702,-2685,-2677,-2698,-2719,-2710,-2703,-2721,-2556,-2749,-2737,-2749,-2701,-2499,-2708,-2501,-2498,-2495,-2494,-2492,-2491,-2489,-2489,-2486,-2484,-2484,-2482,-2481,-2483,-2481,-2483,-2486,-2489,-2492,-2497,-2500,-2505,-2511,-2517,-2523,-2531,-2585,-2574,-2589,-2599,-2610,-2617,-2629,-2634,-2646,-2633,-2663,-2655,-2675,-2676,-2689,-2694,-2706,-2697,-2708,-2713,-2728,-2714,-2718,-2723,-2724,-2727,-2729,-2732,-2731,-2735,-2737,-2737,-2741,-2743,-2754,-2746,-2743,-2750,-2735,-2743,-2740,-2764,-2748,-2768,-2757,-2759,-2754,-2794,-2798,-2804,-2782,-2784,-2784,-2788,-2788,-2785,-2789,-2792,-2796,-2798,-2800,-2798,-2801,-2802,-2806,-2809,-2813,-2814,-2816,-2818,-2820,-2823,-2824,-2828,-2829,-2831,-2833,-2835,-2836,-2838,-2839,-2840,-2842,-2844,-2846,-2847,-2851,-2855,-2858,-2859,-2860,-2863,-2867,-2866,-2871,-2873,-2876,-2882,-2882,-2884,-2887,-2889,-2895,-2899,-2898,-2901,-2906,-2910,-2914,-2915,-2917,-2919,-2921,-2924,-2925,-2928,-2930,-2934,-2937,-2938,-2941,-2945,-2948,-2953,-2956,-2962,-2966,-2975,-2972,-2975,-2982,-2981,-2983,-2987,-2991,-2993,-2995,-3002,-2996,-3001,-3002,-3014,-3007,-3012,-3018,-3019,-3016,-3024,-3027,-3025,-3029,-3033,-3036,-3043,-3049,-3052,-3056,-3058,-3059,-3062,-3066,-3072,-3071,-3072,-3070,-3078,-3083,-3084,-3090,-3094,-3094,-3108,-3114,-3112,-3120,-3128,-3134,-3136,-3132,-3132,-3149,-3127,-3126,-3125,-3127,-3125,-3124,-3128,-3124,-3126,-3123,-3122,-3123,-3125,-3122,-3123,-3122,-3122,-3125,-3123,-3125,-3124,-3124,-3127,-3129,-3129,-3130,-3131,-3132,-3132,-3130,-3138,-3145,-3146,-3149,-3146,-3147,-3146,-3148,-3153,-3157,-3158,-3160,-3161,-3163,-3166,-3170,-3171,-3172,-3175,-3177,-3178,-3182,-3186,-3187,-3193,-3195,-3198,-3200,-3201,-3205,-3209,-3209,-3213,-3216,-3221,-3220,-3220,-3222,-3228,-3227,-3230,-3231,-3233,-3232,-3240,-3243,-3240,-3249,-3250,-3254,-3252,-3252,-3257,-3258,-3263,-3264,-3267,-3269,-3275,-3278,-3281,-3284,-3287,-3290,-3294,-3299,-3301,-3305,-3308,-3309,-3311,-3312,-3314,-3317,-3319,-3323,-3325,-3326,-3327,-3328,-3330,-3333,-3336,-3339,-3340,-3340,-3340,-3344,-3346,-3351,-3350,-3355,-3355,-3357,-3358,-3360,-3360,-3361,-3362,-3359,-3360,-3361,-3365,-3369,-3370,-3374,-3378,-3381,-3387,-3389,-3393,-3398,-3398,-3401,-3396,-3395,-3399,-3399,-3402,-3404,-3407,-3406,-3410,-3412,-3410,-3414,-3414,-3416,-3417,-3419,-3421,-3424,-3426,-3428,-3429,-3431,-3432,-3434,-3435,-3438,-3438,-3440,-3442,-3443,-3444,-3443,-3447,-3446,-3447,-3450,-3452,-3453,-3455,-3456,-3457,-3460,-3461,-3466,-3468,-3471,-3474,-3477,-3481,-3484,-3486,-3489,-3492,-3495,-3498,-3500,-3502,-3505,-3508,-3513,-3513,-3518,-3520,-3524,-3527,-3531,-3536,-3543,-3548,-3553,-3551,-3551,-3553,-3555,-3560,-3562,-3564,-3564,-3569,-3572,-3571,-3570,-3572,-3572,-3571,-3573,-3575,-3582,-3584,-3590,-3590,-3597,-3597,-3604,-3605,-3612,-3611,-3618,-3625,-3625,-3638,-3636,-3644,-3653,-3659,-3662,-3657,-3640,-3609,-3613
73.1145833333333,-2708,-2709,-2706,-2707,-2722,-2726,-2725,-2717,-2721,-2703,-2713,-2735,-2741,-2617,-2742,-2738,-2582,-2726,-2575,-2553,-2533,-2528,-2522,-2516,-2509,-2506,-2504,-2500,-2498,-2496,-2493,-2491,-2492,-2490,-2490,-2489,-2490,-2489,-2491,-2496,-2501,-2503,-2508,-2509,-2515,-2519,-2530,-2543,-2554,-2565,-2578,-2585,-2591,-2610,-2624,-2638,-2651,-2652,-2656,-2665,-2687,-2686,-2702,-2708,-2726,-2715,-2738,-2740,-2740,-2727,-2729,-2736,-2748,-2737,-2741,-2744,-2754,-2743,-2755,-2746,-2763,-2766,-2767,-2768,-2771,-2771,-2775,-2777,-2777,-2777,-2778,-2778,-2778,-2777,-2779,-2781,-2784,-2789,-2792,-2794,-2795,-2798,-2799,-2802,-2804,-2806,-2810,-2812,-2813,-2814,-2817,-2819,-2822,-2825,-2827,-2829,-2831,-2833,-2834,-2836,-2838,-2841,-2842,-2843,-2844,-2847,-2849,-2851,-2853,-2854,-2855,-2857,-2859,-2862,-2866,-2866,-2871,-2875,-2876,-2880,-2884,-2884,-2885,-2888,-2892,-2897,-2900,-2903,-2906,-2910,-2911,-2913,-2915,-2917,-2921,-2924,-2927,-2929,-2931,-2933,-2936,-2938,-2939,-2942,-2946,-2948,-2951,-2954,-2956,-2958,-2961,-2964,-2970,-2980,-2980,-2978,-2984,-2987,-2992,-2994,-2992,-2994,-2997,-2998,-3006,-3014,-3013,-3015,-3014,-3013,-3019,-3019,-3021,-3023,-3031,-3033,-3031,-3032,-3036,-3038,-3045,-3045,-3056,-3057,-3062,-3063,-3067,-3073,-3076,-3075,-3078,-3080,-3081,-3083,-3088,-3091,-3097,-3099,-3101,-3110,-3115,-3122,-3128,-3130,-3132,-3145,-3143,-3144,-3130,-3131,-3132,-3131,-3133,-3133,-3134,-3133,-3133,-3133,-3134,-3133,-3134,-3134,-3135,-3133,-3134,-3133,-3135,-3133,-3138,-3137,-3137,-3139,-3140,-3142,-3143,-3146,-3148,-3148,-3148,-3151,-3151,-3151,-3151,-3154,-3159,-3160,-3160,-3161,-3164,-3168,-3170,-3174,-3174,-3179,-3178,-3181,-3183,-3186,-3185,-3188,-3191,-3192,-3197,-3200,-3201,-3203,-3205,-3208,-3211,-3214,-3215,-3217,-3219,-3222,-3225,-3228,-3233,-3231,-3237,-3230,-3238,-3235,-3240,-3241,-3247,-3247,-3255,-3248,-3268,-3254,-3259,-3260,-3266,-3264,-3267,-3266,-3269,-3272,-3276,-3280,-3282,-3286,-3288,-3294,-3297,-3303,-3306,-3310,-3315,-3318,-3321,-3323,-3325,-3328,-3330,-3331,-3333,-3337,-3341,-3343,-3344,-3345,-3346,-3347,-3348,-3352,-3355,-3357,-3358,-3360,-3362,-3364,-3366,-3367,-3366,-3366,-3370,-3368,-3369,-3369,-3368,-3370,-3376,-3381,-3383,-3384,-3389,-3392,-3395,-3399,-3400,-3401,-3403,-3404,-3405,-3409,-3410,-3412,-3413,-3416,-3417,-3418,-3420,-3421,-3422,-3425,-3427,-3428,-3430,-3432,-3435,-3438,-3440,-3440,-3441,-3444,-3444,-3446,-3447,-3451,-3452,-3454,-3458,-3460,-3459,-3463,-3461,-3463,-3466,-3468,-3470,-3472,-3473,-3475,-3476,-3478,-3480,-3482,-3485,-3488,-3491,-3494,-3497,-3500,-3503,-3504,-3508,-3509,-3514,-3516,-3518,-3523,-3526,-3532,-3534,-3539,-3543,-3546,-3551,-3552,-3554,-3556,-3560,-3566,-3570,-3571,-3573,-3575,-3571,-3570,-3575,-3572,-3574,-3568,-3573,-3575,-3581,-3586,-3589,-3590,-3595,-3599,-3603,-3609,-3612,-3611,-3619,-3620,-3628,-3630,-3633,-3639,-3644,-3644,-3653,-3646,-3651,-3639,-3646,-3646
73.11875,-2748,-2745,-2740,-2717,-2737,-2718,-2709,-2707,-2724,-2719,-2724,-2725,-2724,-2723,-2717,-2698,-2679,-2671,-2651,-2621,-2590,-2554,-2542,-2534,-2532,-2527,-2523,-2524,-2521,-2519,-2514,-2511,-2510,-2509,-2510,-2506,-2507,-2506,-2508,-2508,-2509,-2508,-2510,-2512,-2513,-2516,-2521,-2526,-2536,-2547,-2556,-2566,-2573,-2580,-2590,-2608,-2626,-2639,-2648,-2657,-2668,-2685,-2700,-2712,-2718,-2730,-2739,-2743,-2746,-2748,-2750,-2753,-2752,-2755,-2759,-2762,-2762,-2766,-2766,-2766,-2770,-2772,-2776,-2777,-2779,-2781,-2784,-2778,-2782,-2783,-2781,-2781,-2784,-2783,-2785,-2788,-2791,-2794,-2797,-2800,-2800,-2804,-2808,-2809,-2810,-2813,-2816,-2818,-2821,-2823,-2825,-2827,-2829,-2830,-2831,-2833,-2835,-2838,-2841,-2842,-2844,-2845,-2847,-2849,-2851,-2852,-2854,-2855,-2859,-2861,-2865,-2866,-2869,-2872,-2873,-2874,-2874,-2875,-2877,-2879,-2884,-2888,-2891,-2894,-2896,-2899,-2903,-2906,-2910,-2912,-2915,-2917,-2919,-2922,-2924,-2926,-2927,-2929,-2931,-2935,-2938,-2940,-2943,-2945,-2948,-2951,-2954,-2958,-2960,-2961,-2963,-2965,-2968,-2971,-2982,-2980,-2982,-2989,-2992,-2996,-2996,-2999,-3002,-3001,-3010,-3007,-3013,-3016,-3022,-3018,-3016,-3024,-3026,-3028,-3032,-3033,-3036,-3032,-3034,-3043,-3043,-3044,-3047,-3049,-3054,-3057,-3062,-3067,-3076,-3074,-3075,-3083,-3084,-3082,-3088,-3091,-3095,-3098,-3100,-3106,-3113,-3119,-3122,-3123,-3121,-3125,-3143,-3126,-3129,-3133,-3135,-3137,-3138,-3139,-3139,-3139,-3141,-3143,-3142,-3142,-3143,-3142,-3142,-3145,-3144,-3144,-3145,-3145,-3146,-3145,-3144,-3146,-3147,-3150,-3152,-3154,-3154,-3156,-3160,-3162,-3161,-3162,-3158,-3163,-3164,-3164,-3164,-3168,-3170,-3174,-3177,-3176,-3180,-3179,-3180,-3182,-3185,-3186,-3188,-3190,-3193,-3194,-3197,-3199,-3198,-3202,-3204,-3208,-3210,-3213,-3216,-3218,-3221,-3222,-3226,-3224,-3231,-3230,-3234,-3238,-3239,-3237,-3244,-3242,-3247,-3249,-3252,-3252,-3251,-3254,-3256,-3270,-3265,-3263,-3261,-3263,-3270,-3269,-3272,-3273,-3274,-3279,-3283,-3286,-3289,-3293,-3295,-3297,-3303,-3303,-3310,-3311,-3315,-3318,-3325,-3331,-3335,-3339,-3341,-3344,-3348,-3351,-3351,-3351,-3355,-3357,-3360,-3362,-3364,-3366,-3370,-3370,-3372,-3371,-3369,-3370,-3372,-3374,-3378,-3378,-3377,-3380,-3379,-3384,-3385,-3387,-3390,-3394,-3396,-3398,-3399,-3401,-3403,-3405,-3406,-3409,-3410,-3412,-3415,-3418,-3419,-3420,-3422,-3425,-3428,-3430,-3433,-3435,-3436,-3437,-3440,-3440,-3441,-3444,-3445,-3447,-3448,-3452,-3454,-3456,-3458,-3458,-3460,-3462,-3464,-3468,-3469,-3469,-3473,-3474,-3478,-3479,-3483,-3486,-3488,-3492,-3493,-3491,-3496,-3496,-3500,-3502,-3504,-3508,-3511,-3514,-3516,-3516,-3523,-3524,-3527,-3530,-3534,-3539,-3542,-3546,-3549,-3553,-3557,-3558,-3561,-3562,-3561,-3564,-3569,-3571,-3575,-3576,-3575,-3573,-3574,-3568,-3567,-3571,-3579,-3581,-3584,-3586,-3588,-3592,-3596,-3601,-3604,-3611,-3612,-3618,-3621,-3626,-3629,-3632,-3635,-3635,-3640,-3649,-3649,-3662,-3653,-3652,-3651,-3647
