72.0770833333333,-53,-53,-55,-54,-53,-52,-52,-54,-62,-53,-53,-53,-53,-53,-53,-53,-53,-53,-53,-53,-53,-53,-53,-53,-54,-54,-53,-53,-52,-50,-56,-56,-55,-55,-53,-53,-54,-54,-54,-54,-54,-54,-54,-54,-54,-54,-54,-54,-54,-54,-54,-54,-54,-54,-55,-55,-55,-55,-55,-55,-55,-57,-60,-58,-59,-55,-55,-55,-56,-56,-56,-57,-59,-58,-60,-61,-57,-56,-56,-61,-66,-64,-63,-62,-62,-61,-60,-59,-58,-58,-58,-58,-58,-57,-58,-58,-58,-59,-59,-59,-59,-59,-59,-59,-60,-60,-60,-61,-62,-63,-63,-63,-63,-62,-61,-60,-60,-59,-59,-59,-59,-59,-59,-59,-59,-59,-59,-59,-59,-59,-59,-60,-60,-60,-60,-60,-60,-60,-60,-60,-60,-60,-60,-60,-61,-61,-61,-60,-62,-61,-62,-62,-62,-62,-62,-62,-62,-62,-61,-61,-60,-60,-60,-60,-60,-60,-61,-61,-61,-61,-61,-62,-63,-63,-61,-61,-61,-62,-62,-62,-62,-62,-62,-62,-62,-62,-62,-62,-62,-62,-62,-62,-62,-62,-62,-62,-62,-62,-62,-63,-63,-63,-64,-64,-64,-64,-64,-64,-65,-65,-65,-65,-65,-66,-66,-66,-66,-66,-66,-66,-66,-66,-64,-64,-65,-65,-65,-64,-64,-64,-64,-64,-64,-65,-65,-65,-65,-65,-64,-64,-65,-66,-65,-65,-65,-65,-65,-66,-66,-66,-66,-66,-66,-66,-67,-66,-68,-68,-67,-66,-66,-66,-68,-68,-67,-68,-68,-68,-67,-67,-68,-68,-68,-68,-66,-67,-67,-67,-67,-67,-68,-68,-68,-69,-69,-69,-69,-69,-68,-66,-66,-66,-67,-67,-67,-67,-67,-67,-67,-67,-66,-66,-66,-66,-66,-65,-65,-65,-65,-65,-65,-65,-65,-65,-65,-65,-65,-65,-65,-66,-66,-66,-66,-67,-67,-67,-67,-68,-68,-68,-68,-67,-67,-67,-67,-67,-67,-68,-68,-68,-68,-69,-69,-69,-68,-68,-68,-67,-67,-66,-66,-65,-64,-64,-65,-66,-67,-69,-71,-72,-73,-74,-74,-75,-76,-76,-76,-76,-76,-76,-76,-76,-77,-78,-78,-78,-78,-79,-79,-79,-80,-80,-81,-83,-86,-87,-87,-86,-87,-89,-89,-88,-89,-88,-85,-87,-88,-88,-88,-88,-88,-89,-89,-89,-89,-89,-89,-89,-89,-90,-90,-90,-91,-91,-91,-90,-89,-87,-86,-85,-85,-86,-86,-87,-87,-86,-94,-89,-88,-86,-86,-88,-93,-95,-88,-86,-84,-83,-84,-84,-87,-91,-94,-97,-94,-92,-95,-95,-97,-98,-95,-97,-97,-101,-100,-100,-101,-101,-101,-102,-102,-102,-102,-102,-102,-103,-103,-103,-102,-101,-103,-102,-102,-103,-104,-104,-103,-104,-103,-104
72.08125,-52,-53,-56,-54,-53,-53,-53,-53,-52,-52,-53,-53,-53,-53,-53,-53,-53,-53,-53,-53,-53,-53,-52,-52,-53,-53,-53,-53,-50,-52,-59,-58,-56,-53,-52,-53,-54,-54,-54,-54,-54,-54,-54,-54,-54,-54,-54,-54,-54,-54,-54,-54,-54,-54,-54,-55,-54,-55,-55,-56,-55,-55,-60,-55,-55,-55,-55,-56,-56,-55,-56,-57,-58,-60,-65,-69,-69,-57,-56,-56,-65,-63,-60,-60,-60,-60,-59,-58,-57,-58,-58,-58,-57,-57,-57,-58,-58,-58,-58,-58,-59,-59,-59,-59,-59,-59,-60,-60,-61,-62,-62,-62,-62,-62,-61,-60,-60,-60,-59,-59,-59,-59,-59,-59,-59,-59,-59,-59,-59,-59,-60,-60,-60,-60,-60,-60,-60,-60,-60,-60,-60,-60,-60,-61,-62,-62,-62,-60,-58,-58,-60,-61,-61,-61,-62,-62,-62,-62,-61,-61,-60,-60,-60,-60,-61,-62,-61,-61,-61,-61,-62,-64,-63,-60,-61,-60,-62,-62,-62,-62,-62,-62,-62,-62,-62,-62,-62,-62,-62,-62,-62,-62,-62,-62,-62,-61,-61,-62,-62,-62,-63,-63,-63,-63,-64,-64,-64,-64,-64,-64,-64,-65,-65,-65,-66,-66,-66,-66,-66,-66,-66,-66,-64,-64,-66,-66,-65,-64,-64,-64,-64,-64,-64,-65,-65,-65,-65,-67,-66,-66,-65,-65,-65,-64,-65,-65,-65,-66,-66,-67,-67,-67,-67,-66,-66,-66,-67,-66,-66,-66,-66,-66,-67,-68,-67,-68,-68,-68,-66,-67,-69,-69,-69,-70,-66,-66,-66,-66,-66,-67,-69,-68,-68,-69,-69,-68,-68,-68,-67,-67,-66,-66,-67,-67,-67,-67,-67,-66,-66,-66,-66,-65,-65,-65,-64,-64,-64,-64,-64,-63,-63,-63,-63,-63,-63,-63,-63,-64,-64,-64,-64,-64,-64,-65,-65,-65,-66,-66,-66,-66,-66,-66,-66,-66,-66,-66,-66,-66,-67,-67,-67,-67,-67,-67,-67,-67,-67,-66,-66,-65,-65,-64,-64,-63,-64,-67,-69,-71,-71,-72,-72,-72,-73,-73,-73,-74,-74,-74,-74,-73,-74,-74,-75,-76,-77,-77,-77,-78,-78,-78,-78,-79,-80,-83,-84,-84,-84,-84,-87,-88,-88,-88,-88,-88,-85,-88,-88,-88,-88,-88,-88,-88,-89,-89,-89,-89,-89,-90,-90,-91,-91,-91,-92,-92,-92,-91,-90,-88,-87,-87,-86,-86,-87,-87,-86,-86,-92,-89,-86,-85,-86,-89,-96,-96,-89,-86,-83,-82,-81,-82,-82,-85,-89,-91,-87,-86,-89,-90,-92,-94,-98,-97,-97,-99,-100,-100,-100,-101,-102,-103,-103,-103,-104,-104,-103,-105,-105,-105,-105,-105,-105,-104,-103,-104,-103,-105,-104,-105,-104,-105
72.0854166666667,-53,-52,-52,-52,-53,-53,-53,-51,-52,-53,-53,-53,-53,-55,-53,-53,-53,-53,-53,-53,-53,-52,-52,-52,-53,-53,-53,-52,-52,-53,-53,-53,-53,-53,-52,-53,-55,-54,-54,-54,-54,-54,-54,-54,-54,-54,-54,-54,-54,-54,-54,-55,-55,-55,-55,-55,-54,-54,-54,-55,-56,-54,-54,-54,-55,-55,-55,-55,-56,-55,-55,-57,-55,-57,-59,-59,-56,-63,-56,-55,-55,-56,-57,-58,-58,-58,-58,-58,-57,-58,-58,-58,-57,-57,-57,-57,-58,-58,-58,-58,-58,-58,-58,-59,-59,-59,-59,-60,-60,-61,-61,-61,-61,-61,-61,-60,-60,-60,-59,-59,-59,-59,-59,-59,-59,-59,-59,-59,-59,-60,-60,-60,-60,-60,-60,-60,-60,-60,-60,-60,-60,-61,-61,-61,-63,-63,-63,-61,-61,-60,-59,-59,-58,-59,-61,-62,-61,-62,-61,-60,-60,-60,-60,-61,-61,-62,-62,-61,-61,-60,-62,-63,-61,-61,-61,-61,-62,-63,-62,-62,-62,-62,-62,-62,-62,-62,-62,-62,-62,-62,-62,-62,-62,-62,-61,-61,-61,-61,-61,-62,-62,-62,-63,-63,-63,-64,-64,-64,-64,-64,-64,-64,-64,-65,-65,-66,-66,-66,-66,-66,-67,-67,-65,-65,-66,-66,-65,-64,-64,-64,-64,-65,-65,-65,-66,-66,-66,-65,-65,-65,-66,-65,-66,-65,-65,-65,-66,-66,-67,-68,-68,-68,-67,-67,-66,-66,-67,-67,-67,-67,-66,-66,-66,-66,-68,-68,-68,-68,-68,-68,-68,-68,-68,-68,-68,-68,-69,-67,-68,-67,-66,-67,-67,-68,-68,-68,-67,-67,-68,-68,-66,-66,-67,-67,-66,-66,-66,-66,-66,-66,-65,-65,-64,-63,-63,-63,-63,-62,-62,-62,-62,-62,-62,-62,-62,-62,-62,-62,-62,-62,-62,-62,-63,-63,-63,-63,-64,-64,-64,-64,-64,-64,-64,-64,-64,-64,-65,-65,-65,-66,-66,-66,-66,-66,-66,-66,-66,-66,-65,-65,-64,-64,-64,-64,-65,-67,-69,-70,-71,-71,-71,-71,-71,-72,-72,-72,-72,-72,-72,-72,-72,-72,-73,-75,-76,-75,-75,-75,-75,-76,-76,-78,-79,-81,-82,-82,-82,-83,-85,-87,-86,-87,-87,-87,-86,-87,-88,-87,-87,-87,-87,-88,-88,-89,-89,-90,-90,-90,-91,-91,-92,-92,-93,-93,-93,-93,-91,-90,-89,-88,-89,-88,-88,-87,-86,-85,-89,-86,-84,-84,-87,-92,-96,-94,-88,-84,-82,-80,-78,-78,-80,-81,-82,-85,-86,-87,-88,-88,-88,-91,-93,-93,-95,-98,-101,-102,-102,-103,-103,-102,-103,-103,-104,-106,-105,-106,-107,-107,-106,-107,-106,-106,-106,-106,-106,-108,-106,-106,-107,-109
72.0895833333333,-54,-53,-52,-53,-52,-52,-52,-52,-50,-49,-51,-52,-53,-54,-53,-53,-53,-53,-53,-53,-53,-53,-52,-52,-53,-53,-52,-52,-52,-52,-53,-53,-53,-53,-53,-53,-55,-54,-54,-54,-54,-54,-54,-54,-54,-55,-55,-55,-55,-55,-55,-56,-55,-55,-55,-56,-56,-58,-58,-56,-54,-54,-54,-57,-57,-55,-55,-55,-55,-55,-55,-56,-55,-55,-55,-55,-55,-55,-55,-57,-56,-56,-57,-58,-57,-57,-58,-58,-58,-57,-57,-57,-57,-57,-57,-57,-57,-57,-57,-57,-58,-58,-58,-58,-58,-59,-59,-59,-59,-60,-60,-61,-61,-60,-60,-60,-60,-59,-59,-59,-59,-59,-59,-59,-59,-59,-59,-59,-59,-60,-60,-60,-60,-60,-60,-60,-60,-60,-60,-60,-61,-61,-61,-62,-63,-63,-63,-61,-61,-63,-63,-63,-62,-61,-61,-60,-60,-59,-59,-59,-60,-61,-61,-62,-61,-60,-61,-61,-60,-61,-60,-60,-61,-60,-64,-64,-63,-63,-63,-63,-63,-62,-62,-62,-62,-63,-62,-62,-62,-62,-62,-62,-62,-62,-62,-61,-61,-61,-61,-61,-62,-62,-62,-63,-63,-63,-63,-64,-64,-64,-64,-64,-64,-64,-65,-65,-66,-65,-66,-66,-66,-66,-67,-66,-65,-65,-65,-64,-64,-65,-65,-66,-67,-66,-65,-65,-65,-65,-66,-67,-66,-65,-65,-66,-66,-66,-67,-67,-68,-68,-69,-68,-68,-68,-67,-67,-68,-68,-69,-69,-69,-68,-69,-68,-69,-69,-70,-68,-68,-68,-68,-68,-68,-68,-68,-68,-68,-68,-68,-69,-67,-67,-67,-67,-67,-67,-66,-66,-67,-69,-67,-66,-67,-66,-66,-66,-66,-66,-65,-65,-64,-64,-63,-62,-62,-62,-61,-61,-61,-60,-60,-60,-60,-60,-60,-60,-60,-60,-60,-60,-61,-61,-61,-61,-61,-62,-62,-62,-62,-62,-62,-62,-62,-63,-63,-63,-63,-64,-64,-64,-65,-65,-65,-65,-65,-65,-65,-65,-65,-64,-64,-64,-64,-64,-65,-67,-68,-69,-70,-70,-70,-70,-71,-71,-71,-71,-72,-72,-73,-72,-72,-72,-72,-73,-76,-75,-75,-74,-75,-75,-75,-77,-78,-79,-80,-80,-81,-82,-83,-84,-85,-86,-86,-86,-86,-87,-87,-87,-87,-87,-87,-87,-88,-89,-89,-89,-90,-91,-91,-92,-93,-93,-94,-95,-95,-94,-93,-92,-91,-91,-91,-91,-89,-87,-87,-98,-91,-87,-84,-83,-87,-91,-95,-91,-85,-82,-82,-81,-81,-77,-78,-80,-79,-82,-85,-85,-88,-89,-90,-92,-95,-97,-99,-99,-102,-101,-101,-103,-104,-104,-105,-105,-105,-103,-105,-105,-106,-108,-107,-107,-107,-108,-108,-109,-110,-111,-109,-108,-108,-110
72.09375,-54,-54,-53,-52,-54,-53,-53,-54,-52,-51,-52,-52,-53,-53,-53,-53,-53,-53,-53,-53,-53,-53,-53,-53,-53,-53,-53,-52,-52,-52,-53,-54,-54,-53,-53,-53,-52,-52,-54,-54,-55,-55,-55,-54,-55,-55,-55,-56,-56,-56,-56,-56,-56,-56,-56,-56,-56,-57,-54,-54,-54,-56,-56,-57,-57,-56,-55,-55,-55,-55,-55,-55,-54,-54,-54,-55,-55,-55,-55,-56,-57,-55,-55,-56,-57,-57,-58,-58,-58,-58,-57,-57,-56,-56,-56,-56,-57,-57,-57,-57,-57,-57,-58,-58,-58,-58,-58,-59,-59,-59,-60,-60,-60,-60,-60,-59,-59,-59,-59,-59,-59,-59,-59,-59,-59,-59,-59,-59,-59,-60,-60,-60,-60,-60,-60,-60,-60,-60,-60,-60,-61,-61,-61,-62,-62,-62,-62,-61,-62,-63,-63,-62,-60,-61,-61,-62,-63,-62,-62,-62,-61,-62,-61,-61,-60,-60,-61,-62,-62,-62,-62,-61,-60,-65,-66,-64,-64,-64,-63,-63,-63,-63,-63,-63,-63,-63,-63,-63,-63,-63,-62,-62,-62,-62,-62,-62,-61,-61,-61,-61,-62,-62,-62,-62,-63,-63,-63,-63,-63,-64,-64,-63,-64,-64,-64,-65,-65,-65,-65,-66,-66,-66,-66,-65,-64,-64,-65,-65,-66,-67,-66,-66,-65,-65,-65,-65,-65,-66,-66,-66,-66,-65,-65,-66,-67,-67,-67,-68,-68,-69,-69,-69,-69,-68,-68,-68,-69,-69,-69,-70,-70,-70,-70,-70,-70,-70,-70,-69,-68,-68,-68,-68,-68,-68,-68,-68,-68,-68,-68,-68,-68,-69,-70,-67,-67,-67,-67,-67,-66,-66,-67,-67,-67,-66,-66,-66,-66,-66,-65,-65,-64,-63,-62,-62,-61,-61,-60,-60,-60,-59,-59,-59,-59,-59,-59,-59,-59,-59,-59,-59,-59,-59,-59,-59,-60,-60,-60,-60,-61,-61,-61,-61,-61,-61,-61,-62,-62,-62,-63,-63,-63,-64,-64,-64,-64,-64,-64,-64,-64,-64,-64,-64,-64,-65,-65,-67,-68,-68,-69,-69,-69,-70,-70,-70,-71,-71,-72,-72,-73,-73,-73,-73,-73,-74,-75,-74,-75,-75,-76,-76,-75,-76,-77,-78,-79,-79,-79,-80,-81,-82,-84,-85,-85,-85,-85,-86,-85,-85,-86,-86,-87,-87,-88,-88,-89,-89,-90,-91,-91,-92,-93,-94,-95,-96,-97,-96,-94,-94,-94,-93,-93,-94,-94,-93,-92,-98,-95,-92,-92,-91,-95,-93,-94,-91,-85,-84,-83,-84,-84,-81,-81,-82,-82,-82,-84,-84,-85,-90,-92,-95,-99,-99,-100,-102,-103,-104,-104,-105,-105,-105,-106,-106,-107,-107,-109,-109,-112,-112,-111,-107,-110,-108,-108,-109,-109,-109,-108,-109,-110,-109
72.0979166666667,-54,-54,-53,-52,-52,-53,-53,-54,-54,-53,-54,-54,-54,-54,-54,-54,-54,-54,-53,-53,-53,-53,-53,-53,-53,-53,-53,-53,-53,-53,-54,-54,-54,-53,-54,-53,-54,-52,-52,-53,-55,-56,-55,-54,-55,-55,-56,-56,-57,-57,-57,-57,-57,-57,-55,-55,-54,-54,-54,-54,-55,-56,-56,-56,-56,-56,-55,-55,-55,-55,-55,-55,-55,-55,-55,-54,-54,-55,-55,-55,-55,-57,-55,-55,-55,-57,-62,-61,-59,-58,-57,-56,-56,-56,-56,-56,-56,-56,-57,-57,-57,-57,-57,-57,-58,-58,-58,-58,-58,-59,-59,-59,-59,-59,-59,-59,-59,-59,-59,-59,-59,-59,-59,-59,-59,-59,-59,-59,-60,-60,-60,-60,-60,-60,-60,-60,-60,-60,-60,-60,-61,-61,-61,-61,-62,-62,-62,-62,-62,-62,-62,-61,-61,-62,-63,-63,-63,-63,-63,-63,-62,-61,-62,-62,-63,-64,-63,-62,-62,-62,-62,-62,-63,-63,-63,-64,-64,-63,-63,-63,-63,-63,-63,-63,-63,-63,-63,-63,-63,-63,-63,-63,-62,-62,-62,-62,-62,-62,-62,-62,-62,-62,-62,-62,-63,-63,-63,-63,-63,-64,-63,-63,-64,-64,-64,-65,-65,-65,-65,-66,-66,-65,-66,-64,-63,-64,-65,-66,-66,-66,-66,-65,-65,-65,-65,-66,-66,-66,-66,-66,-66,-66,-66,-67,-68,-67,-68,-68,-68,-69,-69,-69,-69,-69,-69,-69,-69,-69,-70,-70,-70,-71,-71,-71,-71,-70,-70,-69,-68,-68,-68,-68,-68,-68,-68,-68,-68,-69,-69,-69,-68,-68,-68,-68,-69,-68,-68,-68,-68,-68,-69,-67,-67,-67,-66,-66,-66,-65,-65,-65,-64,-64,-63,-62,-61,-60,-60,-60,-59,-59,-58,-58,-58,-58,-58,-58,-58,-58,-58,-58,-58,-58,-58,-58,-58,-59,-59,-59,-59,-59,-59,-59,-59,-60,-60,-60,-61,-61,-62,-62,-62,-63,-63,-63,-64,-64,-64,-64,-64,-64,-64,-64,-64,-65,-65,-66,-67,-68,-68,-68,-68,-69,-69,-69,-70,-71,-72,-73,-74,-74,-74,-74,-74,-74,-74,-74,-74,-75,-76,-76,-76,-76,-76,-77,-78,-77,-78,-78,-79,-80,-81,-83,-84,-84,-84,-84,-83,-84,-84,-85,-86,-86,-87,-88,-88,-89,-89,-91,-91,-92,-93,-94,-95,-96,-98,-98,-96,-96,-95,-96,-96,-97,-96,-95,-110,-102,-96,-95,-95,-97,-104,-95,-93,-92,-89,-88,-88,-88,-88,-87,-87,-88,-89,-89,-90,-92,-89,-89,-91,-95,-96,-96,-102,-107,-104,-105,-106,-106,-106,-106,-107,-107,-108,-107,-106,-108,-108,-112,-112,-112,-108,-108,-108,-108,-108,-109,-110,-111,-111,-114
72.1020833333333,-54,-53,-53,-52,-52,-52,-52,-54,-54,-54,-55,-55,-54,-54,-54,-54,-54,-54,-54,-53,-53,-54,-54,-54,-54,-54,-54,-54,-54,-53,-54,-53,-54,-54,-54,-54,-54,-54,-54,-53,-53,-53,-53,-54,-55,-56,-56,-57,-57,-57,-58,-59,-57,-57,-54,-54,-54,-54,-54,-54,-55,-55,-55,-55,-55,-55,-55,-55,-55,-55,-55,-55,-55,-55,-55,-55,-55,-56,-56,-56,-56,-56,-59,-55,-55,-55,-62,-60,-58,-56,-56,-55,-55,-56,-55,-55,-56,-56,-56,-57,-57,-57,-57,-57,-57,-57,-58,-58,-58,-58,-58,-58,-58,-58,-58,-58,-59,-59,-59,-59,-59,-59,-59,-59,-59,-59,-59,-59,-60,-60,-60,-60,-60,-60,-60,-60,-60,-60,-60,-60,-61,-61,-61,-61,-61,-61,-61,-61,-62,-62,-62,-62,-62,-62,-63,-64,-64,-64,-64,-64,-62,-62,-62,-63,-64,-63,-61,-62,-63,-63,-61,-62,-61,-61,-63,-63,-63,-63,-63,-63,-63,-63,-63,-63,-63,-63,-63,-63,-63,-63,-63,-63,-63,-63,-63,-63,-62,-62,-62,-62,-62,-62,-62,-62,-63,-63,-63,-63,-63,-63,-63,-64,-64,-64,-64,-66,-65,-65,-65,-65,-65,-65,-65,-63,-64,-64,-65,-66,-66,-65,-65,-65,-65,-65,-67,-66,-66,-66,-66,-66,-67,-67,-67,-67,-67,-67,-67,-68,-68,-68,-68,-69,-69,-69,-69,-69,-69,-69,-70,-70,-70,-70,-71,-71,-71,-70,-70,-69,-69,-68,-68,-68,-68,-68,-68,-68,-68,-67,-67,-68,-68,-68,-69,-68,-68,-69,-69,-69,-69,-69,-68,-68,-67,-68,-68,-67,-66,-66,-65,-65,-65,-64,-63,-62,-62,-61,-60,-60,-60,-59,-58,-58,-58,-58,-58,-58,-58,-58,-58,-58,-57,-57,-57,-57,-58,-58,-58,-58,-58,-58,-58,-58,-59,-59,-59,-59,-60,-60,-61,-61,-62,-62,-62,-63,-63,-63,-64,-64,-64,-64,-64,-64,-64,-65,-65,-66,-66,-67,-67,-67,-67,-68,-68,-69,-70,-71,-72,-73,-74,-74,-74,-74,-74,-74,-74,-74,-74,-75,-75,-75,-76,-76,-76,-77,-78,-77,-78,-77,-78,-79,-78,-80,-82,-82,-83,-82,-81,-82,-83,-83,-83,-84,-83,-85,-87,-88,-89,-90,-91,-92,-93,-93,-94,-96,-98,-99,-97,-97,-97,-97,-97,-99,-98,-97,-105,-101,-97,-97,-98,-100,-109,-101,-98,-97,-96,-95,-94,-94,-93,-92,-93,-94,-96,-98,-97,-99,-100,-94,-96,-97,-98,-103,-106,-114,-112,-112,-112,-109,-107,-108,-109,-109,-109,-111,-110,-109,-110,-111,-111,-111,-111,-111,-109,-109,-110,-111,-113,-115,-114,-115
72.10625,-53,-53,-52,-52,-52,-52,-52,-53,-54,-54,-55,-55,-54,-54,-54,-54,-54,-54,-54,-54,-54,-54,-54,-55,-55,-54,-54,-54,-54,-53,-53,-53,-53,-53,-54,-54,-54,-55,-55,-56,-54,-53,-54,-55,-56,-56,-57,-58,-59,-60,-58,-58,-54,-54,-54,-54,-55,-55,-55,-54,-55,-55,-55,-55,-55,-55,-55,-55,-55,-55,-55,-55,-55,-55,-55,-55,-55,-56,-56,-56,-57,-55,-55,-57,-56,-55,-55,-55,-55,-55,-54,-54,-54,-55,-55,-55,-55,-55,-56,-56,-56,-57,-57,-57,-57,-57,-57,-57,-57,-57,-57,-58,-58,-58,-58,-58,-58,-58,-58,-58,-59,-59,-59,-59,-59,-59,-59,-59,-59,-60,-60,-60,-60,-60,-60,-60,-60,-60,-60,-60,-60,-61,-61,-61,-61,-61,-61,-61,-61,-62,-62,-62,-62,-63,-63,-64,-64,-64,-64,-64,-63,-63,-63,-63,-63,-63,-60,-61,-63,-64,-62,-62,-62,-62,-62,-62,-63,-63,-63,-63,-63,-63,-63,-64,-64,-64,-64,-64,-64,-64,-64,-64,-63,-63,-63,-63,-63,-63,-63,-63,-63,-63,-63,-63,-63,-63,-63,-63,-63,-64,-63,-64,-64,-64,-65,-66,-65,-66,-66,-65,-65,-65,-65,-63,-64,-64,-64,-65,-65,-65,-65,-65,-65,-65,-66,-65,-65,-65,-65,-66,-67,-66,-66,-66,-67,-67,-67,-67,-67,-67,-68,-68,-68,-69,-69,-69,-69,-69,-69,-70,-70,-70,-70,-70,-70,-70,-70,-69,-69,-69,-69,-69,-69,-69,-69,-69,-69,-68,-71,-69,-69,-69,-69,-69,-68,-68,-68,-69,-69,-69,-68,-68,-68,-68,-68,-67,-67,-67,-66,-66,-66,-65,-64,-63,-63,-62,-61,-61,-60,-60,-59,-59,-59,-59,-59,-59,-59,-59,-58,-58,-58,-57,-57,-57,-58,-58,-58,-58,-58,-58,-58,-58,-58,-58,-59,-59,-59,-60,-60,-61,-61,-62,-62,-62,-63,-63,-63,-64,-64,-64,-64,-64,-64,-65,-65,-66,-66,-66,-67,-67,-67,-67,-68,-69,-70,-72,-72,-73,-74,-74,-74,-73,-73,-74,-73,-74,-74,-74,-74,-75,-75,-76,-76,-77,-77,-77,-77,-77,-78,-78,-79,-78,-78,-79,-79,-79,-80,-80,-81,-81,-81,-80,-80,-83,-86,-88,-89,-90,-91,-92,-93,-94,-93,-96,-98,-98,-97,-97,-97,-98,-99,-99,-99,-109,-103,-101,-98,-98,-100,-103,-104,-100,-100,-101,-101,-101,-100,-98,-97,-97,-97,-99,-101,-102,-102,-104,-103,-106,-106,-104,-103,-105,-108,-112,-111,-113,-112,-112,-111,-112,-109,-108,-112,-113,-113,-111,-112,-112,-112,-113,-112,-110,-109,-109,-111,-112,-114,-115,-116,-118
72.1104166666667,-53,-52,-52,-52,-52,-52,-53,-53,-53,-53,-54,-54,-54,-53,-53,-53,-53,-53,-53,-54,-54,-55,-55,-55,-55,-55,-55,-55,-54,-54,-54,-53,-53,-53,-54,-54,-54,-54,-54,-54,-54,-54,-54,-55,-56,-57,-58,-59,-60,-60,-55,-53,-54,-54,-56,-56,-55,-56,-55,-54,-54,-54,-54,-54,-54,-54,-54,-54,-54,-55,-55,-55,-55,-55,-55,-55,-55,-56,-55,-55,-55,-54,-55,-63,-55,-55,-57,-58,-58,-57,-55,-54,-54,-54,-54,-54,-55,-55,-56,-56,-56,-56,-56,-57,-57,-57,-57,-57,-57,-57,-57,-57,-57,-58,-58,-58,-58,-58,-58,-58,-58,-58,-59,-59,-59,-59,-59,-59,-59,-60,-60,-60,-60,-60,-60,-60,-60,-60,-60,-60,-60,-60,-61,-61,-61,-61,-61,-61,-61,-61,-62,-62,-62,-63,-63,-64,-64,-65,-65,-64,-63,-63,-63,-62,-62,-61,-62,-63,-63,-63,-62,-61,-62,-62,-62,-62,-62,-62,-63,-63,-63,-63,-64,-64,-64,-64,-64,-64,-64,-64,-64,-64,-64,-64,-64,-64,-64,-63,-63,-63,-63,-63,-63,-63,-63,-63,-63,-63,-63,-64,-64,-64,-64,-65,-66,-66,-65,-65,-65,-66,-66,-66,-66,-64,-64,-63,-65,-64,-64,-64,-65,-64,-64,-65,-65,-65,-67,-67,-66,-65,-65,-65,-65,-65,-66,-66,-66,-66,-66,-67,-67,-68,-68,-68,-68,-69,-69,-69,-69,-69,-70,-70,-70,-70,-70,-70,-70,-70,-69,-69,-69,-70,-70,-70,-70,-70,-70,-69,-71,-71,-73,-73,-71,-70,-69,-70,-69,-69,-68,-68,-69,-69,-69,-68,-68,-68,-68,-68,-67,-67,-67,-66,-66,-65,-64,-63,-62,-62,-62,-61,-61,-60,-60,-59,-59,-59,-59,-59,-59,-58,-58,-58,-58,-58,-58,-58,-59,-58,-58,-58,-58,-58,-58,-58,-59,-59,-59,-60,-60,-61,-61,-62,-62,-63,-63,-63,-63,-64,-64,-64,-64,-64,-65,-65,-65,-66,-66,-66,-66,-67,-67,-67,-67,-69,-70,-71,-73,-73,-73,-72,-72,-73,-74,-75,-74,-72,-73,-73,-73,-74,-74,-75,-76,-76,-76,-77,-77,-77,-78,-78,-79,-79,-78,-78,-79,-78,-80,-80,-80,-81,-79,-78,-77,-83,-86,-88,-89,-89,-90,-91,-92,-94,-92,-95,-97,-97,-96,-97,-97,-99,-100,-99,-99,-105,-103,-101,-99,-99,-103,-111,-102,-100,-101,-101,-101,-101,-101,-101,-101,-101,-101,-102,-103,-105,-106,-108,-110,-111,-112,-113,-111,-110,-112,-114,-114,-114,-114,-114,-114,-117,-114,-113,-114,-115,-114,-113,-113,-114,-113,-114,-111,-110,-109,-110,-111,-112,-114,-115,-116,-120
72.1145833333333,-52,-52,-52,-52,-52,-52,-53,-53,-53,-53,-53,-53,-53,-53,-53,-53,-53,-53,-54,-54,-55,-55,-55,-55,-55,-55,-56,-55,-55,-55,-55,-54,-54,-53,-53,-53,-53,-54,-54,-53,-54,-54,-55,-56,-57,-58,-58,-57,-56,-53,-53,-54,-55,-55,-56,-55,-55,-55,-54,-54,-54,-54,-54,-54,-54,-54,-54,-54,-54,-55,-55,-55,-55,-55,-55,-55,-55,-55,-54,-55,-55,-55,-56,-60,-55,-54,-55,-61,-64,-61,-58,-55,-54,-53,-54,-54,-54,-55,-56,-56,-56,-56,-56,-56,-56,-56,-57,-57,-57,-57,-57,-57,-57,-57,-58,-58,-58,-58,-58,-58,-58,-58,-58,-59,-59,-59,-59,-59,-59,-59,-60,-60,-60,-60,-60,-60,-60,-60,-60,-60,-60,-60,-60,-61,-61,-61,-61,-61,-61,-61,-62,-62,-62,-63,-64,-64,-65,-65,-65,-64,-63,-63,-62,-62,-61,-64,-64,-62,-63,-61,-61,-61,-63,-62,-62,-62,-62,-62,-62,-63,-63,-63,-64,-64,-64,-64,-64,-64,-64,-64,-64,-64,-64,-64,-65,-64,-64,-64,-64,-64,-64,-64,-64,-64,-63,-63,-64,-64,-64,-64,-64,-65,-65,-65,-66,-66,-66,-66,-66,-66,-66,-66,-66,-64,-65,-64,-64,-64,-64,-64,-64,-64,-65,-64,-65,-64,-65,-65,-65,-65,-65,-65,-64,-65,-65,-65,-66,-66,-66,-66,-67,-67,-67,-68,-68,-68,-68,-68,-69,-69,-69,-69,-70,-70,-70,-70,-70,-69,-69,-69,-70,-70,-70,-71,-72,-72,-71,-71,-74,-74,-75,-76,-73,-71,-70,-70,-70,-70,-69,-69,-69,-69,-69,-69,-69,-69,-70,-69,-68,-68,-67,-67,-67,-66,-65,-65,-64,-64,-63,-63,-62,-61,-61,-60,-60,-60,-60,-60,-60,-59,-59,-59,-59,-59,-59,-59,-59,-59,-59,-59,-59,-59,-59,-59,-59,-59,-59,-60,-60,-61,-61,-62,-62,-63,-63,-64,-64,-64,-64,-65,-65,-65,-65,-65,-66,-66,-66,-66,-67,-67,-67,-68,-68,-69,-70,-70,-73,-72,-71,-72,-73,-74,-74,-72,-72,-72,-72,-72,-73,-74,-74,-75,-75,-75,-76,-76,-76,-75,-76,-77,-78,-79,-78,-78,-79,-79,-81,-79,-80,-82,-82,-82,-78,-84,-86,-87,-88,-88,-88,-88,-92,-91,-92,-95,-95,-95,-95,-95,-96,-98,-99,-99,-99,-104,-104,-100,-100,-102,-105,-108,-103,-102,-101,-101,-101,-101,-102,-103,-103,-104,-104,-104,-105,-106,-108,-110,-111,-113,-114,-113,-113,-113,-116,-115,-115,-116,-113,-113,-114,-115,-116,-115,-115,-115,-115,-115,-115,-113,-113,-112,-111,-111,-110,-110,-112,-112,-115,-117,-117,-121
72.11875,-52,-52,-52,-52,-53,-53,-53,-53,-53,-53,-53,-53,-53,-53,-53,-53,-53,-53,-53,-54,-54,-54,-54,-54,-54,-55,-56,-55,-55,-56,-54,-54,-54,-54,-53,-53,-53,-54,-57,-55,-54,-55,-56,-57,-56,-57,-57,-53,-53,-53,-54,-55,-55,-55,-55,-55,-54,-54,-54,-54,-54,-54,-54,-54,-54,-54,-54,-54,-54,-55,-55,-55,-55,-55,-54,-54,-54,-54,-54,-54,-55,-56,-58,-63,-65,-55,-54,-55,-64,-63,-59,-56,-54,-54,-53,-54,-54,-55,-55,-56,-56,-56,-56,-56,-56,-56,-56,-56,-56,-56,-56,-56,-57,-57,-57,-58,-58,-58,-58,-58,-58,-58,-58,-58,-59,-59,-59,-59,-59,-59,-59,-59,-60,-60,-60,-60,-60,-60,-60,-60,-60,-60,-60,-60,-60,-61,-61,-61,-61,-61,-62,-62,-62,-63,-63,-64,-64,-65,-65,-64,-63,-63,-62,-61,-63,-64,-63,-61,-60,-59,-60,-61,-62,-62,-61,-62,-62,-62,-62,-63,-63,-64,-64,-64,-64,-64,-64,-64,-64,-65,-64,-65,-65,-65,-65,-65,-65,-64,-65,-65,-65,-65,-65,-65,-64,-64,-65,-65,-65,-65,-65,-65,-65,-65,-66,-66,-66,-66,-66,-65,-65,-65,-64,-64,-64,-64,-64,-65,-64,-64,-64,-65,-64,-64,-65,-64,-64,-64,-65,-65,-65,-65,-64,-65,-65,-65,-65,-65,-65,-66,-66,-67,-67,-67,-68,-68,-68,-68,-68,-68,-69,-69,-69,-69,-69,-69,-69,-69,-69,-70,-70,-70,-71,-72,-73,-74,-71,-71,-74,-74,-70,-71,-70,-70,-71,-71,-71,-71,-70,-70,-70,-69,-69,-69,-69,-69,-70,-70,-69,-69,-68,-69,-68,-67,-67,-66,-66,-66,-65,-65,-64,-63,-62,-61,-61,-61,-61,-61,-60,-60,-60,-59,-59,-59,-59,-60,-60,-60,-60,-60,-60,-60,-60,-60,-60,-60,-60,-60,-60,-61,-61,-62,-62,-63,-63,-64,-64,-64,-65,-65,-65,-65,-65,-65,-66,-66,-66,-66,-67,-67,-68,-68,-69,-70,-72,-71,-71,-71,-71,-72,-70,-72,-74,-72,-72,-73,-73,-73,-74,-74,-73,-74,-74,-74,-75,-76,-75,-75,-76,-76,-76,-78,-80,-77,-78,-79,-80,-79,-80,-83,-84,-84,-86,-87,-86,-86,-87,-86,-85,-85,-88,-89,-90,-92,-93,-92,-92,-93,-93,-98,-99,-98,-104,-103,-103,-101,-103,-105,-109,-106,-104,-103,-102,-103,-101,-101,-102,-104,-105,-106,-106,-106,-106,-107,-108,-109,-110,-111,-110,-111,-112,-111,-115,-112,-112,-113,-114,-115,-114,-114,-114,-116,-115,-115,-115,-112,-114,-109,-110,-112,-112,-111,-109,-110,-112,-114,-118,-120,-121,-123
72.1229166666667,-52,-52,-52,-53,-53,-53,-53,-53,-53,-53,-53,-53,-53,-52,-52,-52,-53,-53,-53,-53,-53,-53,-53,-53,-53,-54,-54,-54,-53,-54,-53,-53,-54,-53,-54,-54,-54,-53,-54,-54,-54,-56,-57,-55,-54,-53,-53,-53,-55,-54,-54,-55,-55,-55,-54,-54,-53,-53,-53,-53,-53,-54,-54,-54,-54,-54,-54,-54,-55,-55,-54,-54,-54,-54,-54,-54,-54,-54,-54,-54,-55,-56,-59,-63,-64,-59,-54,-54,-55,-59,-56,-54,-53,-53,-53,-54,-54,-55,-55,-55,-56,-56,-56,-56,-56,-56,-56,-56,-56,-56,-56,-56,-56,-57,-57,-57,-58,-58,-58,-58,-58,-58,-58,-58,-58,-59,-59,-59,-59,-59,-59,-59,-59,-59,-60,-60,-60,-60,-60,-60,-60,-60,-60,-60,-60,-60,-61,-61,-61,-61,-61,-62,-62,-62,-63,-63,-63,-64,-65,-65,-63,-63,-61,-63,-63,-63,-62,-61,-61,-59,-60,-61,-62,-63,-62,-62,-62,-62,-62,-63,-63,-64,-64,-64,-64,-64,-65,-65,-65,-65,-65,-65,-65,-65,-65,-64,-65,-65,-65,-64,-64,-64,-65,-65,-65,-65,-65,-65,-66,-64,-64,-64,-64,-65,-66,-66,-66,-66,-64,-66,-65,-64,-65,-65,-64,-64,-64,-64,-64,-64,-64,-65,-64,-64,-65,-65,-64,-64,-65,-65,-65,-65,-65,-66,-66,-65,-65,-65,-65,-66,-66,-66,-67,-67,-67,-67,-67,-67,-68,-68,-68,-69,-69,-69,-69,-69,-69,-69,-69,-69,-69,-70,-70,-71,-72,-72,-70,-72,-73,-73,-71,-71,-69,-70,-71,-71,-71,-71,-70,-70,-71,-71,-70,-70,-69,-69,-69,-69,-69,-70,-69,-70,-69,-68,-68,-68,-68,-68,-68,-67,-65,-64,-63,-62,-62,-62,-62,-62,-61,-60,-61,-61,-61,-60,-60,-60,-61,-61,-61,-61,-61,-60,-60,-60,-60,-60,-60,-60,-60,-61,-61,-62,-62,-63,-63,-64,-64,-64,-65,-65,-65,-65,-65,-65,-65,-66,-66,-66,-67,-67,-68,-68,-69,-69,-70,-69,-70,-70,-71,-71,-70,-72,-73,-73,-72,-73,-73,-73,-74,-74,-73,-74,-74,-74,-74,-75,-76,-77,-80,-80,-78,-79,-79,-80,-80,-82,-81,-82,-80,-82,-84,-85,-85,-85,-84,-83,-86,-85,-84,-85,-86,-87,-89,-91,-91,-90,-90,-92,-96,-97,-97,-97,-102,-102,-102,-102,-103,-106,-109,-106,-106,-105,-104,-106,-104,-103,-104,-105,-107,-109,-109,-108,-108,-108,-108,-107,-106,-106,-107,-108,-108,-109,-107,-109,-111,-113,-113,-113,-114,-114,-112,-111,-110,-110,-109,-107,-111,-106,-106,-110,-114,-114,-114,-116,-116,-117,-118,-121,-123,-125
72.1270833333333,-51,-51,-52,-53,-52,-53,-52,-53,-55,-53,-52,-53,-53,-52,-52,-52,-52,-52,-53,-53,-53,-52,-52,-51,-52,-53,-53,-54,-54,-54,-53,-54,-54,-53,-54,-55,-53,-53,-54,-54,-55,-56,-56,-53,-53,-53,-53,-56,-56,-54,-54,-53,-54,-54,-53,-53,-52,-52,-52,-52,-53,-53,-54,-54,-54,-54,-55,-55,-53,-54,-54,-54,-53,-54,-54,-54,-54,-54,-54,-54,-54,-55,-57,-59,-60,-58,-56,-54,-54,-58,-54,-53,-53,-53,-53,-54,-54,-55,-55,-55,-55,-56,-56,-56,-56,-56,-56,-56,-56,-56,-56,-56,-56,-56,-57,-57,-58,-58,-58,-58,-58,-58,-58,-58,-58,-59,-59,-59,-59,-59,-59,-59,-59,-59,-59,-60,-60,-60,-60,-60,-60,-60,-60,-60,-60,-60,-60,-60,-61,-61,-61,-61,-61,-62,-62,-62,-62,-63,-65,-66,-62,-62,-63,-64,-64,-63,-61,-61,-61,-60,-60,-61,-63,-64,-64,-63,-63,-62,-63,-63,-64,-64,-64,-64,-65,-64,-65,-65,-65,-65,-65,-65,-65,-65,-64,-64,-65,-66,-66,-66,-64,-65,-64,-64,-64,-64,-64,-64,-64,-64,-64,-64,-64,-64,-65,-66,-66,-66,-66,-66,-67,-66,-65,-65,-64,-64,-63,-63,-63,-63,-63,-64,-64,-64,-64,-64,-64,-64,-64,-64,-65,-65,-65,-66,-67,-65,-65,-65,-66,-65,-65,-66,-66,-67,-67,-67,-66,-66,-67,-67,-68,-68,-68,-68,-68,-68,-69,-69,-69,-69,-69,-69,-70,-71,-74,-75,-69,-72,-72,-71,-71,-70,-71,-70,-71,-71,-71,-70,-70,-70,-71,-71,-71,-70,-69,-70,-70,-69,-69,-69,-69,-70,-70,-69,-69,-69,-69,-70,-69,-68,-67,-66,-64,-63,-63,-63,-63,-63,-62,-62,-62,-62,-62,-62,-62,-61,-61,-62,-62,-62,-62,-61,-61,-61,-61,-61,-61,-61,-61,-61,-61,-62,-62,-63,-63,-63,-64,-64,-64,-64,-64,-64,-64,-65,-65,-65,-66,-66,-67,-67,-68,-69,-69,-69,-69,-69,-70,-70,-71,-71,-71,-72,-72,-72,-73,-73,-73,-73,-74,-74,-74,-74,-74,-74,-75,-76,-77,-79,-80,-81,-80,-81,-81,-82,-81,-82,-81,-84,-81,-80,-82,-82,-88,-88,-87,-83,-85,-85,-84,-83,-83,-85,-85,-87,-86,-87,-87,-88,-90,-93,-94,-102,-100,-99,-100,-101,-104,-109,-102,-106,-102,-107,-106,-106,-105,-105,-105,-106,-108,-110,-109,-108,-109,-109,-109,-108,-106,-103,-103,-106,-105,-106,-106,-107,-108,-109,-109,-109,-111,-112,-111,-109,-109,-108,-108,-107,-110,-111,-113,-114,-119,-118,-120,-123,-122,-122,-125,-129,-129,-130
72.13125,-51,-52,-51,-53,-52,-52,-51,-52,-52,-52,-53,-52,-53,-52,-52,-52,-52,-52,-52,-52,-52,-51,-51,-51,-50,-51,-52,-53,-53,-53,-52,-53,-52,-53,-53,-55,-52,-52,-54,-55,-54,-54,-53,-53,-53,-55,-53,-52,-54,-53,-52,-52,-52,-52,-52,-52,-51,-51,-52,-52,-53,-54,-54,-54,-54,-54,-54,-54,-53,-53,-53,-53,-53,-53,-53,-53,-53,-53,-53,-53,-53,-54,-55,-56,-56,-56,-55,-54,-54,-54,-56,-55,-54,-54,-54,-54,-54,-55,-55,-55,-55,-55,-55,-55,-55,-56,-56,-56,-56,-56,-56,-56,-56,-56,-57,-57,-58,-58,-58,-58,-58,-58,-58,-58,-58,-59,-59,-59,-59,-59,-59,-59,-59,-59,-59,-59,-59,-59,-59,-60,-60,-60,-60,-60,-60,-60,-60,-60,-60,-61,-61,-61,-61,-61,-62,-61,-61,-64,-63,-63,-63,-64,-64,-64,-64,-63,-63,-62,-61,-61,-61,-62,-64,-64,-64,-63,-63,-63,-65,-65,-65,-65,-64,-65,-65,-64,-64,-65,-65,-65,-65,-65,-65,-64,-64,-64,-64,-64,-64,-64,-64,-64,-64,-64,-64,-64,-64,-64,-64,-64,-64,-64,-64,-66,-67,-67,-67,-67,-66,-64,-66,-67,-66,-66,-64,-63,-63,-63,-62,-62,-62,-64,-64,-66,-65,-63,-64,-64,-64,-64,-64,-64,-64,-65,-65,-65,-65,-67,-65,-65,-65,-65,-65,-66,-66,-65,-65,-65,-66,-66,-67,-67,-67,-67,-67,-67,-68,-68,-68,-68,-69,-69,-69,-70,-70,-70,-70,-70,-70,-71,-70,-71,-71,-70,-70,-70,-70,-70,-69,-70,-71,-71,-72,-70,-70,-71,-70,-70,-71,-70,-70,-70,-70,-70,-70,-69,-69,-70,-68,-69,-69,-67,-66,-65,-65,-66,-65,-65,-64,-63,-63,-64,-64,-64,-63,-62,-62,-63,-63,-63,-63,-62,-62,-62,-62,-62,-62,-61,-61,-61,-61,-62,-62,-62,-62,-63,-63,-63,-63,-63,-63,-63,-64,-64,-65,-65,-65,-66,-66,-67,-68,-68,-68,-68,-69,-69,-71,-70,-70,-71,-70,-71,-71,-72,-73,-72,-72,-73,-74,-74,-75,-74,-74,-75,-76,-77,-77,-79,-78,-80,-79,-78,-79,-79,-80,-80,-83,-81,-80,-80,-84,-81,-84,-85,-85,-82,-85,-85,-85,-84,-83,-84,-84,-82,-83,-83,-84,-86,-86,-88,-86,-101,-96,-93,-95,-98,-104,-109,-103,-104,-107,-105,-106,-106,-106,-107,-106,-106,-107,-108,-109,-108,-110,-110,-111,-110,-110,-109,-108,-106,-105,-108,-109,-108,-109,-107,-106,-106,-108,-109,-110,-109,-109,-110,-112,-111,-113,-112,-115,-119,-121,-122,-121,-123,-125,-124,-125,-128,-131,-129
72.1354166666667,-52,-52,-52,-52,-51,-51,-51,-51,-51,-52,-52,-52,-53,-53,-53,-52,-52,-52,-52,-52,-51,-51,-52,-52,-49,-48,-50,-48,-50,-52,-52,-52,-52,-52,-52,-52,-51,-53,-51,-54,-52,-52,-53,-54,-54,-54,-52,-51,-53,-52,-52,-51,-52,-52,-52,-52,-51,-52,-52,-53,-53,-54,-54,-54,-54,-53,-54,-53,-53,-53,-53,-53,-53,-53,-53,-53,-53,-53,-53,-53,-53,-53,-53,-53,-54,-53,-54,-53,-54,-54,-54,-59,-55,-54,-54,-54,-54,-55,-55,-55,-55,-55,-55,-55,-55,-56,-56,-56,-56,-56,-56,-56,-56,-56,-57,-57,-58,-58,-58,-58,-58,-58,-58,-59,-58,-59,-58,-59,-58,-59,-58,-59,-59,-59,-59,-59,-59,-59,-59,-59,-60,-60,-60,-60,-60,-60,-60,-60,-60,-60,-60,-60,-60,-60,-61,-60,-61,-64,-62,-62,-62,-63,-64,-63,-61,-63,-64,-63,-63,-62,-62,-62,-64,-63,-63,-62,-63,-62,-65,-64,-64,-64,-62,-65,-64,-64,-64,-64,-64,-64,-64,-64,-64,-64,-64,-64,-64,-64,-65,-63,-63,-63,-64,-64,-64,-64,-63,-64,-64,-64,-64,-65,-68,-68,-67,-67,-67,-67,-64,-66,-65,-66,-66,-66,-64,-63,-63,-64,-63,-63,-63,-63,-63,-64,-63,-63,-62,-63,-63,-63,-63,-63,-63,-63,-63,-63,-64,-67,-64,-64,-64,-63,-64,-64,-64,-64,-64,-64,-65,-65,-65,-66,-66,-66,-66,-66,-67,-67,-67,-67,-67,-68,-70,-67,-68,-70,-69,-70,-70,-70,-70,-70,-70,-71,-70,-70,-70,-71,-69,-70,-70,-69,-70,-71,-71,-71,-70,-69,-68,-69,-71,-70,-70,-70,-70,-69,-69,-69,-69,-70,-70,-69,-67,-67,-66,-68,-66,-66,-65,-66,-65,-65,-65,-65,-64,-64,-64,-64,-64,-64,-63,-62,-63,-63,-64,-64,-63,-63,-62,-62,-62,-62,-62,-62,-62,-62,-63,-63,-63,-63,-63,-63,-64,-64,-64,-64,-66,-66,-66,-67,-68,-68,-68,-68,-69,-69,-68,-69,-70,-70,-70,-70,-70,-71,-72,-72,-72,-73,-74,-73,-74,-74,-75,-75,-77,-76,-76,-78,-78,-79,-78,-78,-79,-79,-79,-79,-80,-79,-81,-80,-80,-79,-82,-83,-85,-85,-86,-86,-86,-86,-85,-84,-83,-83,-82,-82,-82,-86,-83,-83,-95,-90,-89,-90,-93,-96,-99,-99,-104,-105,-108,-107,-108,-106,-106,-109,-109,-107,-109,-111,-112,-112,-112,-113,-113,-112,-112,-113,-112,-111,-111,-110,-110,-111,-111,-112,-109,-110,-111,-110,-114,-114,-114,-113,-114,-115,-111,-112,-114,-118,-123,-123,-121,-122,-123,-127,-130,-127,-129,-130
72.1395833333333,-52,-52,-52,-52,-52,-51,-51,-51,-51,-52,-52,-52,-52,-53,-53,-53,-53,-53,-53,-53,-53,-53,-53,-52,-49,-48,-49,-49,-51,-52,-53,-53,-52,-52,-53,-54,-53,-56,-53,-52,-52,-54,-60,-58,-55,-55,-53,-53,-54,-53,-53,-53,-53,-53,-53,-53,-53,-54,-54,-54,-54,-54,-54,-54,-53,-53,-53,-53,-53,-53,-53,-53,-53,-53,-53,-53,-53,-53,-53,-52,-52,-52,-52,-53,-53,-53,-54,-54,-55,-55,-54,-54,-53,-54,-54,-54,-54,-55,-55,-55,-55,-55,-55,-56,-56,-56,-56,-56,-56,-56,-56,-56,-56,-57,-57,-57,-57,-58,-58,-58,-58,-58,-58,-58,-59,-59,-58,-59,-59,-59,-59,-59,-59,-59,-59,-60,-60,-59,-59,-59,-59,-59,-60,-60,-60,-60,-60,-60,-60,-60,-60,-60,-60,-60,-60,-60,-63,-62,-62,-62,-62,-66,-66,-65,-64,-64,-64,-64,-64,-64,-64,-64,-64,-64,-64,-63,-63,-63,-63,-63,-63,-63,-63,-64,-64,-64,-64,-63,-64,-64,-64,-63,-63,-63,-63,-63,-63,-63,-63,-63,-63,-63,-63,-63,-63,-63,-63,-63,-64,-63,-63,-63,-67,-67,-67,-67,-68,-63,-65,-64,-64,-63,-64,-65,-65,-64,-65,-65,-64,-65,-64,-64,-63,-65,-63,-62,-62,-63,-62,-62,-63,-63,-63,-62,-63,-63,-63,-63,-63,-63,-62,-62,-63,-64,-63,-63,-63,-64,-64,-64,-64,-65,-65,-65,-65,-66,-66,-66,-66,-65,-65,-67,-68,-66,-66,-67,-68,-67,-68,-67,-68,-69,-69,-69,-70,-70,-70,-71,-71,-71,-71,-71,-70,-72,-71,-71,-71,-71,-69,-70,-71,-71,-72,-72,-70,-70,-70,-70,-70,-70,-70,-70,-70,-68,-68,-68,-66,-67,-68,-68,-67,-67,-67,-66,-66,-65,-65,-65,-64,-64,-64,-63,-64,-64,-65,-66,-65,-64,-64,-64,-63,-63,-63,-62,-62,-63,-63,-63,-63,-63,-63,-63,-64,-64,-64,-65,-66,-67,-67,-67,-67,-67,-68,-68,-69,-69,-69,-70,-70,-70,-70,-70,-71,-71,-72,-73,-73,-74,-74,-74,-74,-74,-75,-75,-76,-75,-76,-77,-77,-78,-78,-78,-78,-78,-78,-78,-78,-78,-78,-78,-78,-80,-81,-83,-85,-86,-87,-87,-88,-88,-86,-85,-86,-85,-84,-83,-84,-85,-85,-85,-98,-94,-92,-92,-96,-99,-104,-103,-102,-105,-105,-106,-105,-107,-108,-113,-113,-112,-112,-112,-113,-113,-114,-115,-112,-112,-113,-112,-110,-109,-109,-114,-116,-113,-114,-114,-115,-116,-117,-114,-113,-115,-115,-113,-114,-115,-115,-112,-122,-123,-126,-126,-126,-129,-126,-130,-130,-131,-134,-134
72.14375,-51,-51,-52,-52,-52,-52,-52,-52,-52,-52,-52,-52,-52,-53,-52,-54,-53,-53,-53,-54,-54,-54,-54,-52,-50,-50,-50,-50,-52,-53,-53,-54,-54,-55,-55,-55,-52,-52,-52,-53,-57,-58,-60,-58,-55,-54,-54,-54,-55,-54,-54,-54,-54,-54,-54,-54,-54,-54,-54,-54,-54,-54,-54,-54,-53,-53,-53,-53,-53,-53,-53,-53,-53,-53,-53,-53,-53,-53,-53,-53,-53,-53,-53,-53,-53,-54,-55,-57,-61,-63,-55,-54,-54,-61,-54,-54,-54,-55,-55,-55,-55,-55,-55,-56,-56,-56,-56,-56,-56,-56,-56,-56,-56,-57,-57,-58,-58,-58,-58,-58,-58,-58,-58,-58,-58,-59,-59,-59,-59,-59,-59,-59,-59,-59,-59,-60,-60,-60,-59,-59,-59,-59,-60,-60,-60,-60,-60,-61,-61,-61,-61,-61,-62,-63,-61,-62,-62,-62,-62,-63,-63,-64,-63,-63,-63,-64,-64,-63,-63,-63,-64,-64,-64,-64,-63,-64,-63,-63,-63,-64,-64,-64,-64,-64,-64,-64,-64,-64,-64,-64,-63,-63,-63,-63,-63,-62,-63,-63,-63,-63,-63,-63,-63,-63,-63,-64,-64,-64,-64,-64,-64,-65,-67,-67,-67,-67,-66,-64,-65,-64,-63,-63,-64,-64,-65,-65,-66,-65,-64,-65,-65,-64,-63,-64,-65,-64,-64,-64,-64,-63,-63,-63,-63,-63,-63,-63,-62,-62,-63,-63,-63,-63,-64,-64,-63,-63,-63,-64,-64,-64,-64,-65,-65,-65,-65,-66,-66,-66,-66,-65,-65,-66,-67,-67,-68,-69,-67,-67,-67,-67,-67,-68,-69,-69,-70,-70,-70,-70,-70,-71,-71,-70,-70,-71,-71,-71,-71,-70,-71,-71,-71,-71,-71,-71,-71,-71,-71,-71,-71,-71,-70,-70,-70,-70,-71,-71,-70,-70,-71,-70,-69,-69,-68,-68,-68,-68,-67,-67,-66,-67,-68,-67,-66,-65,-65,-65,-65,-65,-65,-65,-65,-64,-64,-63,-64,-64,-64,-64,-63,-63,-64,-64,-65,-65,-65,-66,-66,-66,-66,-66,-67,-68,-68,-68,-69,-69,-69,-70,-70,-70,-70,-71,-71,-72,-73,-73,-74,-74,-74,-74,-74,-74,-75,-75,-75,-75,-75,-76,-76,-76,-76,-76,-76,-77,-77,-77,-77,-77,-77,-76,-77,-78,-80,-83,-85,-87,-88,-89,-90,-90,-89,-88,-86,-86,-86,-86,-88,-86,-86,-86,-98,-93,-90,-93,-97,-102,-105,-105,-105,-105,-105,-105,-112,-111,-111,-111,-112,-113,-113,-113,-113,-114,-114,-114,-112,-113,-114,-114,-113,-115,-119,-118,-118,-118,-117,-117,-119,-119,-118,-118,-116,-120,-121,-120,-121,-120,-123,-122,-124,-123,-126,-126,-125,-128,-128,-131,-129,-132,-130,-133
72.1479166666667,-51,-51,-51,-52,-52,-52,-52,-52,-52,-52,-52,-52,-52,-52,-52,-52,-52,-52,-53,-54,-54,-54,-53,-52,-51,-51,-51,-52,-53,-54,-55,-55,-56,-56,-54,-52,-52,-52,-56,-57,-58,-58,-58,-56,-54,-54,-54,-55,-55,-53,-53,-55,-54,-54,-54,-54,-56,-54,-53,-54,-54,-54,-54,-54,-54,-54,-54,-54,-54,-54,-54,-54,-54,-54,-54,-54,-54,-53,-53,-53,-53,-53,-53,-54,-54,-55,-57,-59,-61,-61,-56,-54,-53,-54,-57,-56,-54,-54,-55,-55,-55,-55,-55,-56,-56,-56,-56,-56,-56,-56,-56,-56,-56,-57,-57,-58,-58,-58,-58,-58,-58,-58,-58,-58,-58,-59,-59,-59,-60,-60,-60,-60,-59,-59,-60,-60,-60,-60,-59,-59,-59,-60,-60,-60,-61,-60,-61,-62,-62,-62,-63,-63,-64,-65,-62,-62,-62,-61,-63,-63,-63,-63,-63,-63,-63,-63,-65,-65,-64,-64,-63,-63,-63,-64,-64,-64,-64,-64,-64,-64,-65,-64,-65,-64,-65,-65,-65,-64,-64,-64,-64,-63,-63,-63,-63,-63,-63,-63,-63,-63,-64,-64,-64,-64,-64,-64,-65,-65,-66,-67,-67,-68,-68,-68,-68,-68,-67,-65,-65,-64,-64,-64,-64,-65,-65,-66,-66,-66,-65,-65,-64,-63,-63,-64,-64,-65,-64,-64,-64,-64,-63,-64,-63,-63,-63,-63,-63,-63,-63,-63,-63,-63,-64,-64,-64,-64,-64,-64,-65,-65,-65,-65,-65,-66,-66,-66,-66,-66,-66,-66,-66,-67,-68,-69,-70,-69,-68,-67,-67,-67,-67,-68,-69,-69,-70,-70,-70,-70,-70,-70,-71,-71,-72,-73,-71,-71,-71,-71,-71,-71,-70,-70,-70,-71,-71,-71,-71,-71,-71,-71,-71,-70,-71,-71,-71,-71,-71,-71,-71,-71,-71,-70,-69,-69,-70,-70,-69,-69,-68,-69,-69,-69,-68,-67,-67,-67,-67,-66,-66,-66,-66,-66,-65,-65,-65,-65,-66,-64,-64,-64,-65,-65,-66,-66,-66,-66,-66,-66,-66,-67,-67,-68,-68,-68,-69,-69,-69,-70,-70,-70,-70,-71,-72,-72,-72,-73,-73,-74,-74,-74,-74,-74,-74,-74,-74,-74,-75,-75,-75,-75,-75,-75,-76,-76,-76,-76,-76,-76,-76,-76,-76,-77,-79,-82,-85,-87,-88,-90,-91,-92,-91,-89,-88,-87,-87,-88,-88,-88,-88,-99,-93,-94,-93,-94,-98,-104,-100,-106,-105,-107,-108,-109,-109,-109,-110,-111,-112,-113,-110,-111,-112,-113,-113,-113,-113,-113,-116,-115,-117,-118,-117,-120,-119,-119,-118,-119,-120,-120,-121,-122,-122,-124,-125,-126,-125,-126,-128,-129,-129,-128,-130,-129,-129,-130,-130,-131,-131,-132,-132,-137
72.1520833333333,-52,-52,-51,-52,-52,-52,-52,-52,-52,-52,-52,-52,-52,-51,-51,-52,-53,-53,-53,-53,-53,-53,-53,-52,-52,-52,-52,-52,-54,-55,-56,-54,-53,-52,-52,-52,-54,-54,-57,-57,-57,-56,-55,-54,-53,-53,-54,-54,-54,-53,-54,-54,-54,-54,-55,-55,-55,-54,-53,-54,-54,-54,-54,-54,-54,-54,-54,-54,-54,-54,-54,-54,-54,-54,-54,-54,-54,-54,-54,-54,-54,-54,-54,-54,-55,-56,-57,-59,-60,-60,-60,-62,-55,-54,-54,-58,-60,-56,-55,-55,-55,-55,-55,-56,-56,-56,-56,-56,-56,-56,-56,-56,-57,-57,-58,-58,-58,-58,-58,-58,-58,-58,-58,-58,-58,-59,-59,-59,-60,-60,-60,-60,-60,-60,-60,-60,-60,-60,-59,-59,-60,-61,-60,-60,-61,-60,-61,-62,-62,-62,-63,-63,-62,-61,-62,-63,-62,-63,-62,-62,-63,-63,-63,-63,-62,-63,-64,-65,-65,-65,-64,-63,-63,-64,-64,-64,-64,-64,-64,-65,-65,-65,-66,-65,-66,-66,-66,-65,-65,-64,-64,-64,-63,-63,-63,-63,-63,-63,-64,-64,-64,-64,-64,-65,-65,-65,-66,-66,-67,-69,-68,-68,-68,-68,-68,-68,-67,-66,-66,-65,-65,-64,-65,-65,-66,-66,-66,-66,-66,-65,-65,-65,-64,-64,-65,-64,-64,-64,-64,-64,-64,-64,-64,-64,-64,-64,-64,-64,-64,-64,-64,-64,-64,-64,-64,-64,-65,-65,-66,-66,-66,-66,-66,-66,-66,-66,-66,-67,-67,-67,-67,-68,-69,-70,-70,-69,-69,-68,-68,-68,-68,-68,-69,-70,-70,-70,-70,-70,-70,-70,-70,-71,-71,-71,-72,-71,-71,-71,-71,-71,-71,-70,-71,-71,-71,-71,-71,-71,-71,-71,-71,-71,-71,-70,-71,-71,-71,-71,-71,-71,-72,-70,-70,-70,-71,-70,-70,-70,-70,-70,-70,-70,-70,-69,-69,-69,-68,-68,-67,-67,-67,-68,-67,-67,-66,-66,-66,-66,-66,-66,-65,-66,-67,-67,-67,-67,-66,-67,-67,-67,-68,-68,-68,-69,-69,-69,-69,-70,-70,-70,-70,-71,-71,-72,-72,-72,-73,-73,-73,-74,-74,-74,-74,-74,-74,-74,-74,-74,-75,-76,-75,-75,-75,-76,-76,-75,-75,-76,-76,-76,-76,-77,-79,-82,-84,-87,-89,-91,-92,-94,-95,-92,-90,-89,-90,-91,-88,-87,-87,-94,-91,-90,-93,-94,-98,-104,-102,-103,-106,-107,-109,-110,-111,-111,-111,-112,-113,-113,-112,-113,-115,-114,-115,-114,-115,-115,-119,-115,-119,-120,-118,-119,-121,-122,-122,-122,-122,-123,-123,-125,-126,-128,-129,-129,-127,-129,-130,-132,-132,-133,-134,-134,-134,-135,-135,-137,-139,-142,-139,-137
72.15625,-51,-51,-51,-51,-51,-52,-52,-52,-51,-51,-52,-52,-52,-52,-52,-52,-52,-52,-52,-52,-52,-52,-52,-52,-52,-52,-52,-53,-54,-55,-56,-52,-52,-52,-54,-54,-55,-55,-55,-55,-55,-54,-53,-53,-53,-53,-53,-54,-54,-54,-54,-54,-55,-55,-56,-56,-55,-54,-54,-54,-54,-54,-54,-53,-54,-54,-54,-54,-54,-54,-54,-54,-54,-54,-54,-54,-54,-54,-54,-54,-54,-54,-55,-55,-55,-56,-57,-58,-59,-59,-60,-59,-55,-55,-55,-55,-63,-59,-56,-55,-55,-55,-55,-56,-56,-56,-56,-57,-57,-57,-57,-57,-58,-58,-58,-59,-59,-59,-59,-58,-58,-58,-58,-58,-59,-59,-59,-59,-60,-60,-60,-61,-60,-61,-61,-60,-60,-60,-60,-60,-61,-62,-61,-61,-62,-61,-61,-61,-61,-61,-60,-61,-61,-61,-61,-61,-62,-62,-62,-63,-63,-62,-62,-62,-62,-62,-63,-64,-66,-65,-65,-65,-64,-64,-64,-64,-65,-65,-65,-65,-65,-64,-65,-67,-68,-67,-67,-66,-66,-65,-64,-64,-64,-64,-64,-64,-64,-64,-64,-64,-65,-65,-65,-65,-66,-66,-67,-67,-68,-68,-68,-68,-68,-68,-68,-68,-67,-67,-66,-66,-65,-65,-66,-66,-66,-66,-67,-66,-66,-66,-66,-67,-67,-65,-65,-65,-65,-65,-65,-64,-64,-64,-64,-64,-64,-64,-64,-64,-64,-64,-64,-64,-64,-64,-65,-65,-66,-66,-67,-67,-66,-66,-66,-66,-66,-67,-67,-67,-67,-67,-68,-68,-68,-69,-69,-68,-68,-69,-69,-69,-69,-69,-70,-70,-70,-70,-70,-70,-70,-70,-70,-70,-70,-70,-72,-71,-71,-71,-71,-71,-71,-71,-71,-71,-71,-71,-71,-71,-71,-71,-71,-71,-71,-71,-71,-71,-71,-72,-71,-71,-71,-71,-72,-73,-71,-71,-71,-71,-71,-71,-71,-71,-71,-71,-71,-70,-70,-70,-70,-70,-70,-70,-70,-69,-69,-69,-69,-69,-69,-68,-66,-67,-68,-68,-68,-67,-67,-68,-68,-68,-69,-68,-69,-69,-69,-69,-69,-70,-70,-70,-70,-70,-71,-71,-72,-72,-72,-73,-73,-73,-73,-74,-74,-74,-74,-74,-74,-74,-74,-75,-75,-75,-75,-75,-75,-75,-75,-75,-75,-76,-76,-77,-79,-81,-84,-86,-88,-91,-93,-95,-94,-94,-93,-93,-94,-92,-92,-91,-96,-94,-93,-91,-91,-95,-102,-101,-103,-104,-106,-108,-110,-112,-113,-113,-112,-113,-114,-116,-116,-117,-120,-119,-121,-120,-120,-121,-120,-121,-121,-119,-117,-119,-120,-121,-122,-123,-125,-125,-126,-128,-129,-130,-131,-131,-130,-130,-131,-135,-135,-136,-137,-138,-138,-140,-139,-140,-140,-140,-141,-141
72.1604166666667,-51,-51,-51,-51,-51,-51,-51,-52,-52,-52,-52,-52,-52,-52,-52,-52,-52,-52,-53,-53,-52,-52,-52,-52,-52,-52,-52,-52,-53,-53,-52,-52,-54,-53,-54,-54,-55,-53,-53,-53,-53,-53,-53,-53,-53,-53,-54,-54,-54,-54,-54,-54,-54,-55,-55,-55,-55,-55,-54,-54,-54,-53,-54,-54,-54,-54,-54,-54,-55,-55,-55,-55,-55,-55,-54,-54,-54,-54,-54,-54,-55,-55,-55,-55,-55,-56,-56,-57,-57,-57,-58,-57,-56,-57,-55,-55,-55,-55,-55,-56,-56,-56,-55,-56,-55,-55,-56,-57,-57,-58,-58,-59,-59,-59,-59,-59,-60,-60,-59,-58,-58,-58,-58,-58,-59,-59,-59,-59,-59,-60,-60,-60,-60,-61,-61,-60,-60,-60,-62,-61,-61,-60,-61,-60,-61,-61,-61,-61,-60,-60,-60,-60,-60,-61,-61,-62,-61,-62,-62,-62,-62,-63,-63,-63,-63,-63,-63,-63,-63,-63,-65,-65,-64,-65,-65,-65,-65,-65,-65,-65,-66,-67,-65,-65,-68,-68,-67,-66,-66,-66,-65,-64,-64,-64,-64,-64,-64,-65,-65,-65,-65,-66,-66,-66,-66,-67,-67,-68,-68,-68,-68,-68,-67,-67,-68,-68,-67,-67,-67,-66,-66,-66,-66,-66,-67,-67,-67,-67,-67,-66,-66,-66,-66,-67,-67,-66,-65,-65,-65,-65,-65,-65,-65,-65,-65,-65,-65,-65,-65,-65,-65,-65,-65,-65,-65,-66,-66,-67,-67,-67,-67,-67,-66,-66,-67,-67,-67,-67,-67,-68,-68,-68,-68,-69,-69,-69,-69,-69,-69,-69,-70,-70,-70,-70,-70,-70,-70,-70,-70,-70,-70,-70,-70,-70,-71,-71,-70,-71,-72,-72,-72,-72,-71,-71,-71,-72,-72,-72,-72,-71,-71,-71,-71,-71,-71,-71,-71,-71,-72,-72,-72,-72,-72,-72,-72,-72,-73,-71,-71,-71,-71,-71,-71,-71,-71,-71,-71,-71,-71,-71,-72,-72,-71,-71,-71,-71,-72,-72,-72,-71,-71,-69,-68,-68,-68,-69,-68,-68,-68,-69,-69,-69,-69,-69,-69,-69,-69,-70,-70,-70,-70,-70,-71,-71,-71,-72,-72,-72,-72,-73,-73,-73,-73,-74,-74,-73,-73,-73,-73,-74,-74,-74,-74,-74,-74,-74,-75,-75,-75,-75,-76,-76,-78,-80,-83,-85,-87,-90,-93,-95,-95,-95,-94,-95,-96,-96,-95,-94,-107,-101,-96,-95,-96,-100,-110,-100,-100,-102,-106,-110,-114,-114,-115,-114,-114,-115,-115,-117,-118,-117,-119,-119,-121,-120,-121,-121,-122,-123,-122,-120,-121,-122,-123,-121,-123,-123,-125,-128,-129,-130,-133,-133,-133,-135,-135,-134,-136,-135,-136,-137,-138,-139,-139,-140,-140,-140,-141,-142,-143,-143
72.1645833333333,-52,-52,-52,-52,-53,-53,-53,-51,-52,-52,-52,-53,-51,-51,-52,-52,-52,-52,-53,-53,-53,-53,-52,-52,-52,-52,-52,-52,-52,-52,-52,-52,-52,-52,-53,-52,-54,-52,-52,-52,-52,-51,-52,-54,-54,-54,-53,-53,-53,-53,-53,-53,-53,-54,-54,-54,-55,-56,-55,-54,-53,-53,-53,-54,-54,-54,-54,-54,-54,-55,-55,-55,-55,-55,-55,-54,-54,-54,-54,-55,-55,-55,-55,-55,-55,-55,-55,-55,-56,-56,-56,-56,-55,-56,-56,-57,-55,-55,-55,-56,-58,-58,-57,-56,-56,-56,-57,-57,-58,-59,-59,-59,-59,-60,-60,-60,-60,-59,-59,-58,-58,-57,-57,-58,-59,-58,-58,-58,-58,-59,-60,-60,-59,-59,-59,-58,-58,-59,-59,-59,-59,-59,-59,-59,-60,-60,-60,-60,-60,-61,-61,-61,-61,-61,-61,-62,-62,-62,-63,-63,-62,-63,-63,-63,-63,-64,-65,-65,-65,-65,-64,-63,-64,-64,-64,-65,-65,-65,-65,-66,-66,-66,-64,-65,-66,-66,-66,-66,-66,-66,-65,-65,-65,-64,-64,-65,-65,-65,-65,-66,-66,-66,-67,-67,-67,-67,-68,-69,-69,-69,-69,-68,-67,-67,-68,-68,-67,-67,-67,-67,-67,-67,-67,-67,-67,-68,-68,-67,-67,-67,-67,-67,-67,-67,-67,-67,-66,-66,-66,-65,-65,-65,-65,-65,-65,-65,-65,-65,-65,-65,-65,-65,-65,-65,-66,-66,-67,-67,-67,-67,-67,-67,-67,-67,-67,-67,-67,-67,-67,-68,-68,-68,-68,-68,-68,-67,-68,-69,-70,-70,-70,-70,-70,-70,-70,-70,-70,-70,-70,-70,-71,-71,-71,-71,-70,-71,-70,-71,-72,-72,-72,-72,-72,-72,-72,-72,-72,-73,-72,-72,-71,-71,-71,-71,-71,-72,-72,-72,-72,-72,-72,-72,-72,-72,-71,-71,-71,-71,-72,-71,-72,-72,-71,-71,-71,-71,-71,-71,-71,-71,-71,-71,-71,-71,-71,-71,-72,-72,-72,-73,-71,-71,-71,-70,-70,-68,-68,-68,-69,-69,-69,-69,-69,-69,-69,-69,-69,-69,-70,-70,-70,-70,-70,-71,-71,-71,-71,-72,-72,-72,-73,-73,-73,-73,-74,-74,-74,-74,-74,-74,-74,-74,-74,-74,-74,-74,-74,-74,-74,-75,-75,-75,-77,-80,-82,-84,-86,-88,-91,-94,-93,-93,-94,-95,-102,-103,-104,-119,-108,-105,-104,-106,-106,-107,-103,-109,-111,-112,-115,-115,-116,-117,-117,-116,-115,-116,-116,-117,-117,-117,-118,-119,-119,-118,-120,-120,-122,-125,-125,-126,-128,-127,-126,-127,-128,-128,-130,-131,-129,-132,-133,-135,-136,-136,-137,-137,-137,-137,-138,-138,-139,-140,-140,-141,-141,-142,-142,-143,-144,-145
72.16875,-51,-51,-51,-51,-51,-52,-51,-52,-52,-52,-52,-52,-52,-52,-52,-52,-52,-52,-52,-52,-52,-52,-52,-52,-52,-52,-52,-52,-52,-51,-51,-51,-52,-52,-52,-52,-51,-51,-51,-52,-52,-52,-52,-53,-52,-52,-52,-52,-52,-52,-52,-53,-52,-53,-53,-53,-54,-56,-54,-53,-53,-53,-53,-53,-53,-53,-53,-53,-54,-54,-54,-54,-55,-54,-54,-55,-54,-55,-55,-55,-55,-54,-54,-54,-54,-54,-55,-55,-55,-55,-55,-56,-56,-56,-56,-56,-55,-56,-55,-55,-59,-58,-56,-55,-56,-55,-57,-57,-57,-58,-59,-58,-58,-59,-58,-59,-59,-57,-58,-57,-57,-57,-57,-57,-58,-57,-57,-57,-57,-57,-58,-58,-58,-58,-58,-58,-58,-58,-59,-58,-58,-59,-59,-60,-60,-60,-60,-61,-60,-60,-60,-60,-61,-61,-62,-62,-62,-62,-62,-62,-62,-63,-63,-62,-63,-64,-66,-66,-65,-63,-62,-63,-64,-64,-64,-65,-65,-65,-65,-65,-66,-65,-65,-66,-66,-65,-66,-65,-65,-65,-65,-65,-65,-65,-65,-65,-65,-65,-66,-66,-67,-67,-67,-67,-67,-67,-68,-69,-69,-69,-69,-67,-67,-68,-68,-68,-67,-67,-67,-67,-67,-67,-67,-68,-68,-68,-68,-68,-67,-67,-67,-68,-68,-68,-68,-67,-67,-67,-66,-66,-66,-66,-66,-66,-66,-66,-66,-66,-66,-66,-66,-66,-66,-66,-66,-67,-67,-67,-67,-67,-67,-67,-67,-67,-67,-67,-67,-67,-67,-67,-68,-68,-68,-69,-69,-67,-71,-71,-70,-71,-71,-70,-70,-70,-70,-70,-70,-70,-70,-70,-71,-71,-71,-72,-71,-71,-70,-70,-72,-72,-72,-72,-72,-72,-72,-72,-72,-73,-73,-72,-72,-72,-72,-72,-72,-72,-73,-73,-73,-73,-73,-73,-72,-71,-70,-70,-70,-70,-71,-71,-71,-73,-71,-71,-72,-72,-72,-72,-72,-73,-73,-73,-73,-73,-73,-73,-71,-73,-73,-73,-72,-72,-72,-72,-71,-71,-71,-70,-70,-70,-69,-69,-69,-69,-69,-69,-69,-69,-70,-70,-70,-70,-70,-70,-71,-71,-71,-71,-72,-72,-72,-73,-73,-73,-73,-74,-75,-76,-76,-75,-74,-74,-74,-75,-74,-74,-74,-74,-74,-74,-73,-75,-78,-80,-82,-83,-84,-86,-89,-90,-90,-91,-93,-99,-102,-103,-106,-112,-111,-110,-109,-110,-112,-116,-114,-115,-114,-114,-116,-116,-117,-117,-118,-119,-120,-119,-119,-119,-118,-118,-119,-118,-119,-120,-118,-121,-124,-124,-126,-127,-128,-127,-128,-131,-131,-131,-132,-132,-133,-133,-136,-136,-138,-139,-138,-141,-138,-138,-138,-140,-140,-142,-142,-144,-145,-145,-145,-148,-148,-149
72.1729166666667,-52,-52,-52,-50,-52,-52,-52,-49,-48,-51,-51,-51,-51,-51,-51,-51,-51,-51,-51,-51,-51,-51,-51,-51,-51,-51,-52,-51,-51,-51,-51,-51,-52,-52,-51,-52,-52,-52,-52,-52,-52,-52,-52,-52,-52,-52,-52,-52,-53,-52,-52,-52,-52,-52,-52,-52,-53,-53,-53,-53,-53,-53,-53,-53,-53,-53,-53,-53,-53,-53,-53,-53,-54,-54,-54,-54,-54,-54,-54,-54,-54,-54,-54,-54,-54,-54,-54,-54,-55,-55,-55,-57,-62,-58,-55,-55,-56,-57,-56,-55,-55,-56,-54,-54,-55,-55,-55,-56,-56,-56,-55,-55,-55,-55,-56,-55,-56,-56,-56,-56,-57,-57,-57,-57,-57,-57,-57,-57,-57,-57,-57,-58,-58,-58,-58,-58,-58,-58,-58,-58,-58,-59,-60,-60,-61,-61,-61,-60,-60,-60,-60,-61,-61,-61,-62,-62,-62,-62,-62,-62,-62,-62,-63,-63,-63,-65,-66,-65,-65,-63,-62,-61,-63,-64,-64,-65,-65,-65,-65,-65,-65,-65,-65,-65,-65,-65,-67,-66,-65,-65,-65,-65,-65,-65,-65,-65,-66,-66,-66,-67,-67,-67,-68,-68,-69,-70,-69,-69,-69,-71,-70,-69,-68,-68,-68,-68,-68,-68,-67,-67,-67,-68,-68,-68,-68,-68,-69,-69,-67,-68,-68,-68,-69,-69,-68,-68,-67,-67,-67,-67,-66,-66,-66,-66,-66,-66,-66,-66,-66,-66,-66,-66,-66,-66,-67,-67,-67,-67,-67,-67,-67,-67,-67,-67,-67,-67,-66,-66,-67,-67,-68,-68,-69,-69,-67,-67,-70,-70,-70,-71,-71,-71,-70,-70,-70,-70,-70,-70,-70,-70,-70,-71,-71,-71,-71,-72,-70,-70,-71,-71,-71,-71,-72,-73,-72,-72,-72,-73,-73,-73,-73,-73,-73,-73,-73,-73,-73,-74,-74,-74,-73,-73,-73,-72,-71,-72,-71,-71,-71,-71,-71,-71,-72,-73,-73,-73,-73,-73,-73,-73,-73,-73,-73,-73,-74,-73,-73,-73,-73,-73,-73,-73,-73,-72,-71,-70,-72,-71,-71,-70,-70,-70,-70,-69,-69,-69,-70,-69,-69,-69,-70,-70,-70,-70,-70,-70,-71,-71,-72,-72,-72,-73,-73,-73,-73,-74,-75,-76,-76,-75,-75,-75,-75,-74,-74,-74,-75,-74,-74,-74,-73,-75,-79,-81,-83,-82,-83,-84,-86,-86,-88,-89,-91,-97,-101,-103,-112,-113,-112,-112,-112,-114,-116,-125,-117,-117,-117,-118,-118,-118,-118,-119,-117,-116,-118,-117,-119,-119,-118,-116,-115,-113,-113,-115,-117,-120,-122,-123,-126,-130,-131,-131,-133,-134,-136,-135,-137,-138,-138,-138,-139,-139,-139,-140,-142,-142,-142,-139,-143,-143,-143,-145,-145,-145,-146,-146,-147,-148,-148,-149
72.1770833333333,-51,-52,-52,-52,-52,-53,-54,-55,-53,-52,-51,-52,-52,-52,-52,-52,-52,-52,-52,-52,-52,-52,-52,-52,-52,-51,-52,-52,-52,-52,-51,-52,-52,-51,-51,-52,-53,-53,-52,-52,-52,-52,-52,-52,-53,-53,-53,-52,-52,-52,-52,-52,-53,-53,-53,-53,-53,-53,-53,-53,-53,-53,-53,-53,-53,-53,-54,-54,-53,-53,-53,-53,-53,-53,-53,-53,-53,-53,-53,-53,-53,-53,-53,-53,-53,-53,-54,-54,-54,-55,-55,-55,-55,-55,-55,-54,-55,-57,-56,-56,-56,-56,-56,-56,-56,-56,-56,-56,-56,-56,-55,-55,-55,-56,-55,-55,-55,-56,-56,-56,-56,-56,-56,-56,-57,-57,-58,-58,-58,-58,-58,-58,-58,-58,-59,-58,-58,-58,-58,-58,-58,-59,-60,-61,-62,-60,-60,-60,-60,-60,-61,-61,-61,-61,-61,-61,-61,-62,-62,-62,-62,-62,-63,-63,-64,-65,-65,-65,-65,-65,-63,-62,-62,-63,-64,-64,-64,-64,-64,-64,-65,-65,-65,-65,-65,-65,-65,-65,-65,-65,-65,-65,-65,-65,-65,-66,-66,-66,-66,-67,-67,-68,-68,-69,-68,-68,-70,-71,-72,-72,-70,-69,-69,-68,-68,-68,-68,-68,-68,-68,-68,-68,-68,-68,-68,-68,-68,-68,-68,-68,-70,-70,-69,-69,-69,-68,-68,-68,-67,-67,-67,-67,-67,-67,-67,-67,-67,-67,-67,-67,-67,-67,-67,-67,-67,-67,-67,-67,-67,-67,-67,-67,-67,-67,-67,-66,-66,-66,-66,-67,-67,-68,-69,-70,-67,-67,-69,-70,-70,-71,-71,-71,-71,-70,-70,-70,-70,-70,-70,-70,-70,-70,-71,-71,-71,-71,-70,-70,-70,-70,-70,-70,-70,-71,-71,-71,-72,-72,-72,-73,-73,-73,-73,-73,-74,-74,-74,-74,-74,-74,-74,-73,-73,-73,-73,-73,-72,-73,-72,-72,-71,-71,-71,-72,-73,-72,-73,-71,-73,-74,-73,-73,-73,-73,-74,-73,-73,-73,-73,-73,-73,-74,-73,-72,-71,-71,-72,-72,-71,-71,-70,-70,-70,-69,-69,-70,-70,-69,-70,-69,-70,-70,-70,-70,-70,-70,-70,-71,-71,-71,-72,-72,-73,-72,-72,-74,-75,-75,-75,-75,-75,-75,-73,-72,-73,-73,-76,-73,-74,-76,-77,-78,-80,-80,-84,-81,-81,-84,-86,-86,-87,-87,-91,-97,-99,-100,-113,-113,-113,-114,-115,-117,-118,-118,-118,-118,-119,-120,-119,-119,-121,-122,-122,-122,-125,-123,-123,-122,-123,-122,-121,-120,-119,-119,-119,-120,-122,-126,-129,-130,-131,-132,-133,-135,-136,-137,-138,-137,-138,-139,-139,-140,-140,-141,-142,-144,-144,-145,-142,-144,-143,-145,-145,-145,-145,-147,-147,-148,-149,-149
72.18125,-52,-52,-52,-52,-52,-53,-54,-55,-52,-50,-51,-51,-51,-52,-52,-52,-53,-54,-54,-55,-51,-51,-52,-52,-52,-52,-52,-53,-53,-52,-53,-53,-53,-53,-53,-53,-53,-52,-53,-53,-53,-53,-52,-52,-52,-52,-52,-52,-53,-53,-53,-53,-53,-53,-53,-52,-52,-52,-53,-53,-53,-53,-53,-53,-53,-54,-53,-53,-53,-53,-53,-54,-53,-53,-53,-53,-54,-54,-54,-54,-55,-54,-54,-54,-54,-54,-54,-54,-57,-56,-56,-55,-55,-55,-55,-56,-55,-55,-56,-56,-56,-56,-56,-56,-56,-57,-56,-56,-56,-56,-56,-56,-56,-56,-57,-57,-57,-56,-57,-57,-56,-56,-57,-57,-58,-58,-59,-59,-60,-60,-60,-60,-59,-59,-60,-59,-59,-58,-59,-59,-60,-60,-61,-63,-63,-59,-60,-60,-60,-60,-61,-61,-61,-60,-60,-60,-60,-61,-62,-62,-62,-62,-63,-63,-64,-64,-65,-65,-65,-65,-64,-62,-62,-62,-63,-63,-63,-63,-63,-64,-64,-64,-64,-64,-64,-64,-64,-65,-65,-65,-65,-65,-65,-66,-66,-66,-66,-66,-67,-67,-68,-68,-69,-70,-69,-69,-68,-69,-67,-68,-69,-69,-69,-68,-68,-68,-68,-68,-68,-68,-68,-68,-68,-68,-68,-68,-68,-68,-68,-68,-70,-70,-69,-69,-69,-69,-68,-68,-68,-68,-67,-67,-67,-67,-67,-67,-67,-67,-67,-67,-67,-67,-67,-67,-67,-67,-68,-68,-68,-68,-68,-67,-67,-67,-67,-66,-66,-66,-66,-67,-67,-68,-69,-69,-66,-67,-69,-70,-70,-71,-71,-71,-71,-70,-70,-70,-70,-70,-70,-70,-70,-70,-70,-70,-70,-70,-70,-70,-71,-70,-70,-70,-70,-70,-71,-71,-72,-72,-72,-72,-73,-73,-73,-73,-74,-74,-74,-74,-74,-74,-74,-74,-74,-74,-74,-73,-73,-72,-72,-72,-72,-73,-72,-73,-72,-72,-73,-73,-74,-75,-74,-74,-74,-74,-74,-73,-73,-73,-73,-74,-74,-74,-73,-73,-72,-72,-72,-72,-72,-71,-71,-71,-71,-70,-70,-71,-71,-70,-71,-70,-70,-70,-70,-70,-70,-70,-70,-71,-71,-72,-72,-71,-71,-71,-71,-73,-76,-74,-75,-76,-75,-75,-73,-73,-75,-74,-75,-73,-76,-77,-77,-79,-80,-80,-82,-84,-83,-83,-88,-88,-88,-88,-91,-96,-98,-101,-112,-112,-113,-115,-118,-121,-123,-124,-124,-124,-124,-125,-125,-125,-125,-124,-124,-124,-126,-126,-127,-124,-126,-125,-123,-122,-121,-120,-121,-122,-123,-128,-128,-128,-130,-130,-134,-133,-135,-137,-137,-138,-138,-139,-139,-140,-140,-141,-143,-144,-147,-147,-147,-143,-144,-144,-145,-146,-147,-148,-149,-149,-151,-150
72.1854166666667,-52,-52,-52,-52,-52,-53,-53,-53,-51,-50,-51,-51,-51,-51,-52,-54,-52,-53,-51,-51,-51,-52,-58,-52,-52,-52,-53,-54,-53,-54,-54,-54,-54,-54,-54,-53,-53,-53,-53,-53,-53,-53,-53,-52,-52,-52,-53,-54,-55,-53,-53,-53,-52,-52,-53,-53,-53,-53,-53,-53,-53,-53,-53,-53,-53,-53,-53,-53,-53,-54,-54,-54,-54,-55,-55,-54,-54,-54,-54,-54,-53,-54,-54,-54,-54,-55,-54,-54,-54,-54,-54,-54,-55,-55,-55,-55,-55,-55,-55,-55,-56,-55,-55,-55,-55,-55,-55,-55,-55,-56,-56,-56,-56,-56,-56,-56,-56,-56,-56,-56,-57,-57,-57,-58,-58,-59,-59,-60,-60,-61,-60,-60,-59,-59,-60,-59,-59,-59,-59,-60,-62,-60,-60,-62,-59,-59,-59,-59,-59,-60,-61,-61,-61,-60,-59,-59,-60,-61,-62,-62,-62,-62,-62,-63,-63,-64,-64,-64,-65,-65,-64,-65,-64,-64,-63,-63,-63,-63,-63,-63,-64,-64,-64,-64,-64,-64,-65,-65,-66,-66,-65,-66,-66,-66,-66,-66,-66,-66,-67,-67,-68,-68,-69,-69,-69,-69,-69,-67,-67,-67,-68,-68,-68,-68,-68,-68,-68,-68,-68,-68,-68,-68,-68,-68,-69,-69,-68,-68,-68,-68,-70,-70,-69,-69,-69,-69,-68,-68,-68,-68,-68,-68,-68,-68,-68,-68,-68,-68,-68,-68,-68,-68,-68,-68,-68,-68,-68,-68,-68,-68,-68,-68,-67,-67,-67,-67,-66,-66,-66,-67,-67,-67,-68,-68,-66,-70,-71,-70,-71,-71,-71,-71,-71,-70,-70,-70,-70,-69,-69,-69,-69,-70,-70,-70,-70,-70,-71,-70,-70,-73,-70,-71,-71,-71,-71,-71,-71,-71,-72,-72,-72,-72,-73,-73,-73,-74,-74,-74,-74,-74,-74,-74,-74,-74,-74,-74,-73,-72,-72,-72,-73,-73,-73,-73,-73,-74,-73,-73,-74,-74,-75,-74,-74,-74,-74,-73,-74,-74,-74,-74,-74,-74,-74,-73,-73,-73,-73,-72,-72,-72,-72,-72,-72,-72,-72,-72,-72,-72,-72,-72,-71,-71,-71,-71,-71,-72,-72,-72,-72,-72,-72,-71,-72,-73,-73,-73,-74,-74,-75,-76,-75,-76,-75,-75,-75,-76,-76,-75,-78,-79,-82,-83,-85,-85,-86,-86,-87,-87,-88,-88,-88,-89,-90,-92,-95,-101,-110,-111,-114,-117,-120,-122,-123,-125,-125,-124,-124,-124,-126,-128,-124,-123,-124,-125,-125,-122,-124,-124,-123,-124,-128,-127,-128,-126,-126,-125,-126,-126,-127,-128,-130,-135,-136,-134,-136,-137,-136,-138,-137,-139,-139,-139,-141,-144,-144,-145,-147,-149,-150,-150,-151,-146,-149,-149,-151,-151,-149,-148,-150,-152
72.1895833333333,-52,-52,-52,-52,-52,-52,-52,-51,-51,-51,-51,-52,-52,-52,-52,-55,-53,-52,-52,-52,-53,-52,-51,-51,-52,-53,-54,-54,-54,-54,-54,-54,-54,-54,-54,-54,-54,-53,-53,-54,-54,-53,-53,-53,-52,-53,-53,-54,-55,-54,-54,-53,-54,-54,-55,-55,-55,-55,-54,-53,-53,-53,-53,-53,-53,-53,-54,-54,-54,-54,-54,-54,-54,-54,-55,-54,-54,-53,-53,-54,-54,-54,-54,-54,-54,-54,-54,-54,-55,-55,-54,-55,-55,-54,-54,-55,-55,-55,-55,-57,-57,-56,-56,-57,-60,-62,-56,-56,-56,-56,-56,-56,-56,-56,-57,-56,-56,-56,-57,-57,-58,-58,-58,-58,-58,-58,-59,-59,-59,-59,-59,-59,-58,-59,-59,-59,-59,-59,-59,-60,-65,-60,-61,-59,-60,-59,-61,-60,-60,-61,-61,-61,-61,-60,-59,-59,-60,-61,-61,-62,-62,-62,-62,-63,-63,-63,-63,-64,-64,-64,-64,-65,-65,-65,-63,-62,-62,-63,-63,-63,-63,-63,-64,-64,-64,-64,-64,-65,-65,-66,-67,-67,-67,-66,-66,-66,-66,-67,-67,-67,-68,-69,-69,-69,-69,-69,-69,-67,-67,-67,-67,-68,-68,-68,-68,-68,-68,-68,-68,-68,-68,-68,-68,-69,-69,-69,-68,-68,-68,-69,-70,-70,-69,-69,-69,-69,-69,-68,-68,-68,-68,-68,-68,-68,-68,-68,-68,-68,-68,-68,-68,-68,-68,-68,-68,-68,-68,-68,-68,-68,-68,-68,-68,-67,-67,-67,-67,-67,-67,-67,-67,-67,-68,-68,-66,-68,-71,-71,-71,-71,-71,-71,-70,-70,-70,-70,-69,-69,-69,-69,-69,-69,-70,-70,-70,-71,-71,-70,-70,-71,-71,-71,-71,-71,-71,-71,-71,-71,-71,-71,-71,-72,-72,-72,-73,-73,-74,-74,-74,-74,-74,-75,-75,-75,-75,-74,-73,-73,-73,-73,-73,-74,-74,-74,-75,-75,-74,-75,-74,-74,-74,-74,-74,-74,-74,-75,-75,-75,-74,-74,-74,-74,-74,-74,-74,-73,-73,-73,-72,-72,-72,-72,-73,-73,-73,-73,-73,-73,-73,-73,-73,-73,-73,-73,-73,-74,-74,-74,-74,-74,-74,-74,-75,-76,-75,-79,-78,-79,-79,-79,-80,-80,-80,-80,-81,-81,-81,-82,-82,-82,-83,-84,-85,-86,-87,-86,-87,-87,-87,-88,-89,-90,-91,-94,-94,-111,-110,-112,-115,-120,-125,-128,-128,-128,-128,-128,-129,-129,-128,-125,-124,-128,-132,-127,-128,-128,-128,-128,-129,-131,-130,-128,-129,-130,-124,-128,-126,-127,-129,-130,-133,-135,-135,-136,-137,-137,-137,-138,-138,-139,-140,-141,-143,-145,-146,-146,-149,-150,-152,-154,-153,-154,-150,-151,-153,-152,-151,-151,-153,-154
72.19375,-52,-52,-51,-51,-51,-52,-52,-51,-51,-52,-54,-55,-54,-54,-55,-52,-52,-52,-56,-55,-53,-52,-51,-52,-52,-54,-54,-54,-54,-54,-54,-54,-54,-54,-54,-54,-54,-54,-54,-54,-54,-54,-53,-53,-53,-53,-54,-54,-55,-54,-54,-54,-54,-55,-55,-56,-56,-56,-55,-54,-54,-54,-54,-55,-54,-54,-55,-54,-54,-54,-53,-55,-55,-54,-54,-54,-54,-54,-53,-54,-54,-54,-55,-55,-55,-54,-55,-56,-55,-55,-56,-57,-57,-54,-54,-54,-54,-54,-54,-56,-57,-57,-57,-58,-60,-60,-56,-56,-56,-56,-56,-57,-60,-63,-58,-56,-56,-57,-58,-59,-58,-58,-57,-57,-57,-57,-57,-57,-57,-58,-59,-59,-58,-58,-59,-59,-58,-58,-59,-60,-65,-59,-59,-60,-59,-60,-61,-61,-60,-60,-61,-61,-61,-60,-60,-60,-60,-61,-61,-62,-62,-62,-62,-62,-63,-62,-63,-63,-63,-63,-63,-65,-65,-64,-63,-63,-63,-63,-63,-63,-63,-63,-63,-64,-64,-64,-64,-65,-66,-65,-65,-66,-67,-66,-66,-66,-66,-66,-67,-67,-69,-69,-69,-69,-70,-69,-68,-67,-67,-67,-67,-68,-68,-68,-68,-68,-68,-68,-68,-68,-69,-69,-69,-69,-68,-68,-68,-68,-69,-70,-70,-69,-69,-69,-69,-69,-69,-69,-69,-68,-68,-68,-68,-68,-68,-68,-68,-68,-68,-69,-69,-69,-69,-69,-68,-68,-68,-68,-68,-68,-68,-68,-68,-68,-68,-67,-67,-67,-67,-67,-68,-68,-69,-69,-66,-68,-70,-71,-71,-71,-71,-71,-70,-70,-70,-70,-70,-69,-69,-69,-70,-70,-70,-70,-71,-71,-72,-71,-70,-71,-71,-71,-71,-71,-71,-71,-71,-71,-71,-71,-71,-71,-71,-72,-73,-73,-74,-74,-74,-74,-75,-75,-75,-75,-75,-75,-74,-74,-73,-73,-74,-74,-75,-76,-77,-77,-76,-76,-76,-76,-75,-75,-75,-75,-75,-74,-74,-74,-74,-74,-74,-75,-75,-75,-74,-74,-73,-73,-73,-73,-73,-73,-73,-74,-74,-73,-74,-74,-74,-74,-74,-74,-74,-74,-74,-75,-75,-75,-75,-75,-75,-75,-76,-77,-77,-78,-79,-79,-79,-79,-80,-80,-80,-80,-80,-81,-82,-82,-84,-84,-85,-84,-84,-85,-86,-86,-88,-87,-86,-86,-87,-93,-94,-94,-123,-113,-113,-116,-121,-127,-130,-135,-132,-126,-126,-126,-127,-126,-127,-127,-127,-127,-128,-129,-128,-129,-129,-130,-133,-133,-132,-131,-131,-130,-127,-128,-128,-129,-131,-133,-135,-136,-136,-137,-138,-138,-139,-140,-140,-141,-142,-144,-146,-148,-147,-148,-149,-153,-153,-154,-155,-154,-155,-152,-152,-153,-153,-154,-155,-156
72.1979166666667,-52,-51,-51,-51,-52,-52,-52,-52,-52,-55,-57,-54,-54,-52,-52,-52,-53,-54,-55,-54,-54,-53,-53,-54,-54,-54,-54,-53,-54,-54,-53,-54,-54,-54,-54,-54,-54,-54,-54,-54,-54,-54,-54,-53,-53,-53,-54,-54,-54,-54,-54,-54,-55,-55,-56,-56,-56,-56,-56,-56,-56,-55,-54,-54,-54,-54,-54,-54,-54,-54,-54,-54,-54,-54,-54,-55,-54,-55,-54,-54,-54,-54,-54,-54,-54,-54,-54,-55,-55,-54,-55,-55,-56,-55,-54,-54,-54,-54,-53,-55,-56,-56,-57,-57,-58,-58,-56,-56,-55,-56,-56,-58,-61,-60,-58,-57,-57,-58,-58,-59,-58,-58,-57,-56,-56,-57,-57,-58,-58,-58,-58,-58,-58,-58,-58,-58,-58,-58,-58,-59,-59,-59,-59,-59,-59,-59,-59,-61,-60,-60,-61,-61,-61,-60,-60,-61,-61,-61,-61,-61,-61,-61,-62,-62,-63,-63,-62,-63,-62,-62,-62,-62,-62,-65,-65,-64,-62,-62,-62,-63,-63,-63,-63,-63,-64,-64,-64,-65,-65,-65,-65,-66,-66,-66,-66,-66,-66,-67,-68,-68,-69,-69,-69,-69,-67,-67,-67,-67,-67,-67,-67,-68,-68,-68,-68,-68,-68,-68,-68,-69,-69,-69,-69,-69,-68,-68,-68,-70,-70,-69,-69,-69,-69,-69,-69,-69,-69,-69,-69,-69,-69,-69,-69,-69,-69,-69,-69,-69,-69,-69,-69,-69,-69,-69,-69,-69,-69,-69,-69,-68,-68,-68,-68,-68,-68,-68,-68,-68,-68,-68,-68,-69,-69,-70,-68,-68,-70,-70,-71,-71,-70,-70,-70,-70,-70,-70,-70,-70,-70,-70,-70,-70,-70,-70,-71,-71,-72,-71,-70,-70,-71,-71,-71,-70,-71,-71,-70,-70,-70,-70,-70,-71,-71,-72,-73,-74,-74,-74,-74,-74,-75,-75,-75,-76,-76,-76,-75,-75,-74,-74,-74,-74,-75,-76,-76,-76,-76,-77,-77,-76,-76,-76,-76,-75,-75,-76,-75,-74,-74,-74,-75,-75,-75,-75,-75,-74,-73,-73,-73,-73,-73,-73,-73,-73,-73,-74,-74,-74,-74,-74,-74,-74,-75,-75,-74,-74,-75,-75,-75,-74,-74,-74,-76,-76,-76,-77,-77,-78,-78,-79,-81,-82,-83,-84,-86,-86,-89,-83,-87,-83,-95,-95,-95,-95,-95,-95,-89,-89,-89,-90,-92,-95,-97,-100,-119,-117,-117,-123,-129,-130,-132,-128,-128,-127,-127,-127,-125,-134,-130,-129,-129,-128,-129,-130,-130,-130,-130,-132,-134,-134,-134,-133,-133,-132,-130,-131,-131,-132,-134,-135,-137,-138,-138,-139,-140,-141,-141,-142,-143,-144,-145,-146,-148,-149,-149,-149,-149,-153,-154,-153,-155,-155,-156,-155,-155,-155,-155,-156,-158,-158
72.2020833333333,-52,-52,-52,-52,-53,-54,-54,-55,-55,-55,-58,-52,-52,-52,-54,-54,-54,-54,-54,-54,-54,-54,-54,-54,-54,-54,-53,-53,-53,-53,-53,-53,-54,-54,-54,-54,-54,-54,-54,-54,-54,-54,-54,-54,-54,-54,-54,-54,-54,-54,-54,-54,-55,-55,-55,-55,-56,-56,-56,-56,-56,-55,-54,-54,-54,-54,-54,-54,-54,-54,-54,-56,-55,-54,-54,-54,-55,-55,-55,-55,-55,-55,-55,-55,-55,-54,-54,-54,-54,-54,-54,-53,-53,-54,-54,-54,-54,-54,-54,-55,-55,-55,-55,-55,-55,-56,-55,-56,-56,-58,-56,-56,-58,-55,-58,-57,-56,-59,-58,-59,-58,-57,-57,-57,-57,-57,-57,-57,-57,-57,-57,-57,-57,-58,-58,-58,-57,-57,-58,-58,-58,-59,-59,-59,-59,-60,-60,-60,-60,-60,-60,-60,-60,-61,-61,-61,-61,-61,-61,-61,-61,-61,-61,-62,-62,-62,-62,-62,-62,-62,-61,-63,-62,-62,-64,-64,-64,-63,-63,-63,-63,-63,-63,-63,-64,-64,-64,-65,-65,-65,-65,-65,-65,-66,-66,-66,-67,-68,-68,-68,-68,-68,-69,-69,-69,-69,-68,-66,-67,-68,-68,-68,-68,-68,-68,-68,-68,-68,-68,-69,-69,-69,-69,-70,-70,-67,-68,-68,-69,-69,-69,-69,-69,-69,-69,-69,-69,-69,-69,-69,-69,-69,-69,-69,-69,-69,-69,-69,-69,-69,-69,-69,-69,-69,-69,-69,-69,-69,-69,-69,-69,-69,-69,-68,-69,-69,-69,-69,-69,-69,-69,-69,-70,-70,-68,-68,-69,-70,-70,-71,-70,-71,-71,-71,-71,-71,-71,-70,-70,-70,-70,-70,-70,-71,-71,-72,-73,-73,-70,-70,-72,-72,-71,-70,-70,-70,-70,-70,-70,-70,-71,-71,-69,-69,-74,-72,-73,-73,-73,-72,-74,-75,-75,-75,-76,-77,-76,-75,-75,-74,-74,-74,-75,-74,-75,-75,-77,-77,-77,-77,-77,-77,-76,-76,-75,-77,-76,-76,-76,-75,-75,-75,-75,-75,-75,-74,-74,-73,-73,-73,-73,-72,-72,-71,-71,-72,-72,-72,-72,-72,-73,-72,-72,-72,-72,-72,-73,-73,-73,-73,-74,-76,-75,-75,-79,-79,-78,-80,-81,-82,-82,-83,-84,-85,-82,-83,-91,-93,-83,-93,-94,-95,-97,-102,-105,-103,-101,-99,-100,-102,-103,-104,-108,-127,-125,-125,-126,-128,-129,-131,-134,-128,-129,-131,-128,-128,-128,-132,-130,-131,-131,-131,-131,-131,-130,-131,-131,-133,-134,-135,-135,-135,-135,-134,-134,-134,-134,-135,-137,-138,-139,-140,-141,-142,-142,-143,-144,-145,-145,-146,-147,-149,-150,-152,-152,-151,-153,-153,-154,-155,-156,-158,-159,-159,-160,-159,-158,-159,-161,-161
72.20625,-53,-54,-54,-55,-56,-56,-56,-56,-56,-52,-52,-52,-52,-53,-55,-55,-54,-54,-53,-54,-54,-54,-54,-54,-54,-53,-53,-53,-53,-53,-53,-53,-53,-54,-54,-54,-54,-54,-54,-54,-54,-54,-54,-54,-54,-54,-54,-54,-54,-54,-54,-54,-54,-54,-54,-54,-54,-54,-55,-54,-54,-54,-53,-54,-54,-54,-57,-56,-56,-57,-57,-57,-57,-55,-55,-55,-55,-55,-55,-54,-55,-55,-54,-54,-55,-54,-55,-55,-55,-55,-55,-55,-56,-56,-54,-54,-54,-54,-54,-54,-54,-54,-54,-54,-55,-55,-55,-55,-55,-56,-56,-56,-56,-56,-55,-56,-56,-57,-57,-56,-55,-56,-56,-56,-56,-56,-56,-56,-56,-56,-56,-57,-57,-56,-56,-56,-56,-56,-57,-57,-57,-58,-58,-58,-58,-58,-58,-58,-58,-58,-59,-60,-60,-60,-60,-61,-60,-60,-61,-61,-62,-61,-61,-61,-62,-62,-62,-64,-62,-61,-62,-62,-62,-62,-62,-65,-65,-64,-64,-63,-63,-63,-63,-64,-64,-64,-64,-65,-65,-65,-66,-65,-64,-66,-65,-66,-67,-68,-68,-68,-68,-70,-69,-68,-68,-68,-67,-67,-68,-68,-68,-68,-68,-68,-68,-68,-68,-68,-69,-69,-69,-69,-70,-70,-70,-67,-68,-68,-68,-68,-69,-69,-69,-69,-69,-69,-69,-69,-69,-69,-69,-69,-69,-69,-69,-69,-70,-70,-70,-70,-70,-70,-70,-70,-69,-69,-69,-69,-69,-69,-69,-69,-69,-69,-69,-69,-69,-69,-69,-69,-69,-70,-70,-70,-68,-68,-69,-70,-70,-70,-71,-71,-72,-72,-72,-72,-71,-71,-71,-71,-71,-71,-71,-71,-71,-72,-73,-73,-71,-71,-71,-72,-72,-71,-71,-71,-71,-71,-71,-71,-70,-69,-68,-65,-74,-70,-72,-72,-73,-71,-73,-74,-74,-74,-75,-76,-77,-75,-75,-75,-74,-75,-76,-77,-77,-78,-77,-77,-77,-77,-78,-78,-77,-77,-77,-77,-77,-76,-76,-76,-77,-76,-76,-76,-76,-77,-76,-73,-73,-72,-72,-71,-71,-70,-70,-71,-71,-71,-72,-73,-73,-72,-73,-74,-74,-75,-75,-75,-75,-76,-74,-76,-77,-77,-78,-79,-80,-82,-81,-82,-83,-84,-83,-83,-83,-85,-89,-93,-94,-93,-96,-97,-98,-101,-103,-106,-105,-106,-105,-112,-114,-118,-133,-127,-127,-126,-126,-127,-129,-131,-133,-129,-131,-134,-130,-132,-131,-132,-132,-133,-134,-134,-132,-131,-131,-131,-132,-134,-135,-135,-136,-136,-137,-137,-137,-137,-138,-139,-140,-141,-142,-143,-144,-144,-145,-146,-147,-147,-148,-149,-150,-151,-152,-152,-152,-153,-153,-154,-156,-158,-159,-160,-160,-161,-162,-163,-162,-161,-163,-164
72.2104166666667,-55,-56,-57,-58,-58,-57,-56,-52,-52,-52,-52,-55,-54,-53,-55,-55,-54,-54,-53,-53,-53,-53,-53,-53,-53,-53,-53,-53,-53,-53,-53,-53,-53,-53,-53,-53,-54,-54,-54,-54,-54,-54,-54,-54,-54,-54,-54,-54,-54,-54,-54,-54,-54,-54,-54,-54,-54,-53,-54,-53,-53,-53,-53,-53,-54,-54,-56,-56,-57,-58,-58,-58,-57,-57,-56,-56,-57,-56,-54,-52,-54,-54,-57,-55,-55,-55,-55,-55,-55,-55,-55,-55,-55,-54,-54,-54,-55,-56,-56,-56,-55,-54,-55,-55,-55,-55,-55,-55,-55,-55,-55,-55,-55,-55,-55,-55,-55,-55,-55,-55,-55,-55,-55,-55,-55,-56,-55,-55,-55,-55,-56,-56,-56,-56,-56,-56,-56,-56,-57,-57,-57,-57,-57,-57,-57,-57,-57,-58,-58,-58,-58,-58,-58,-58,-58,-58,-58,-58,-58,-58,-57,-59,-60,-61,-61,-61,-61,-61,-61,-62,-63,-62,-62,-62,-62,-62,-65,-65,-64,-64,-63,-63,-64,-64,-64,-64,-64,-65,-64,-63,-64,-65,-65,-65,-65,-65,-67,-68,-68,-68,-68,-66,-67,-66,-67,-67,-68,-68,-68,-68,-69,-68,-69,-69,-69,-68,-68,-68,-69,-69,-69,-69,-69,-69,-69,-68,-68,-68,-68,-68,-68,-68,-69,-69,-69,-69,-69,-69,-69,-69,-69,-69,-69,-69,-70,-70,-70,-70,-70,-70,-70,-70,-70,-70,-70,-69,-69,-69,-69,-69,-69,-69,-69,-69,-69,-69,-69,-69,-69,-69,-69,-70,-70,-70,-69,-69,-70,-70,-70,-71,-71,-72,-72,-73,-73,-73,-73,-72,-72,-72,-72,-71,-71,-71,-71,-72,-73,-73,-72,-71,-72,-73,-72,-73,-72,-71,-71,-72,-72,-73,-71,-69,-72,-72,-70,-71,-70,-72,-72,-79,-70,-71,-73,-74,-75,-76,-76,-76,-76,-75,-75,-77,-79,-79,-78,-78,-78,-78,-78,-79,-79,-78,-78,-78,-78,-77,-76,-76,-76,-75,-75,-75,-77,-76,-76,-76,-76,-76,-77,-73,-72,-72,-71,-75,-73,-72,-72,-73,-73,-73,-73,-72,-74,-76,-74,-75,-76,-75,-73,-74,-75,-75,-76,-77,-79,-77,-77,-79,-81,-82,-82,-85,-86,-85,-87,-88,-89,-92,-95,-96,-85,-90,-102,-108,-116,-113,-114,-114,-115,-117,-121,-121,-134,-128,-127,-126,-126,-127,-130,-132,-130,-129,-129,-131,-131,-134,-136,-135,-134,-135,-137,-136,-133,-132,-132,-133,-134,-134,-135,-136,-137,-138,-138,-139,-140,-141,-141,-142,-143,-144,-145,-146,-146,-147,-148,-149,-149,-150,-151,-151,-152,-153,-153,-154,-154,-155,-154,-157,-159,-160,-162,-163,-164,-163,-163,-165,-165,-165,-168,-167
72.2145833333333,-56,-58,-59,-58,-57,-54,-52,-51,-52,-54,-54,-55,-54,-53,-53,-53,-53,-53,-53,-53,-53,-53,-53,-53,-53,-53,-53,-53,-53,-53,-53,-53,-53,-53,-53,-53,-54,-54,-54,-54,-54,-54,-54,-54,-54,-54,-54,-54,-54,-54,-54,-54,-54,-53,-53,-53,-53,-53,-53,-53,-53,-53,-54,-54,-54,-55,-56,-56,-57,-58,-58,-58,-57,-57,-57,-57,-57,-55,-54,-53,-54,-55,-56,-55,-55,-55,-55,-55,-55,-55,-55,-55,-55,-55,-54,-54,-55,-55,-55,-55,-55,-55,-56,-56,-55,-55,-55,-55,-55,-55,-55,-55,-55,-55,-55,-55,-55,-54,-55,-54,-55,-54,-54,-54,-54,-55,-55,-55,-55,-55,-55,-55,-55,-56,-56,-57,-56,-56,-56,-58,-58,-58,-58,-59,-60,-59,-58,-58,-57,-57,-56,-57,-58,-58,-58,-58,-58,-58,-58,-58,-58,-58,-58,-59,-59,-60,-60,-61,-62,-61,-62,-62,-62,-62,-62,-62,-63,-64,-64,-64,-64,-63,-63,-64,-64,-64,-64,-63,-64,-64,-64,-65,-66,-64,-68,-67,-67,-67,-67,-67,-67,-67,-68,-68,-68,-67,-67,-69,-68,-68,-68,-70,-68,-68,-69,-67,-68,-68,-68,-69,-69,-69,-69,-69,-69,-69,-69,-68,-68,-68,-68,-68,-69,-70,-70,-70,-69,-69,-69,-69,-69,-69,-69,-69,-70,-70,-70,-70,-70,-71,-71,-71,-71,-70,-70,-70,-69,-69,-69,-69,-69,-69,-69,-70,-70,-70,-70,-70,-70,-70,-70,-69,-69,-69,-69,-69,-70,-71,-71,-71,-72,-72,-73,-73,-73,-74,-74,-74,-74,-73,-73,-72,-71,-70,-72,-73,-74,-75,-74,-73,-72,-76,-74,-74,-74,-72,-71,-74,-73,-73,-72,-71,-69,-71,-72,-72,-72,-72,-74,-76,-71,-72,-73,-74,-76,-76,-76,-76,-76,-76,-77,-79,-80,-79,-79,-79,-79,-79,-78,-78,-78,-78,-78,-78,-77,-77,-77,-77,-76,-76,-75,-75,-78,-78,-78,-77,-77,-77,-77,-77,-78,-78,-76,-75,-75,-75,-75,-75,-74,-73,-73,-73,-74,-76,-72,-73,-74,-73,-74,-73,-74,-75,-75,-75,-75,-75,-75,-77,-80,-82,-82,-83,-83,-84,-84,-84,-84,-90,-84,-94,-97,-96,-106,-115,-117,-116,-116,-117,-118,-122,-122,-122,-129,-128,-128,-127,-127,-128,-131,-134,-132,-131,-131,-131,-131,-132,-132,-134,-135,-136,-135,-134,-134,-133,-134,-134,-135,-135,-136,-137,-138,-139,-140,-142,-144,-144,-145,-145,-146,-147,-148,-148,-149,-150,-151,-152,-152,-153,-153,-154,-154,-155,-156,-156,-156,-156,-156,-159,-159,-161,-163,-165,-165,-164,-167,-167,-167,-168,-172,-172
72.21875,-55,-56,-58,-55,-52,-53,-54,-53,-53,-53,-53,-53,-53,-53,-53,-53,-53,-53,-53,-52,-52,-52,-53,-53,-53,-53,-53,-53,-53,-53,-53,-53,-53,-53,-53,-53,-54,-54,-54,-54,-54,-54,-54,-54,-54,-54,-54,-54,-54,-54,-54,-54,-53,-53,-53,-53,-53,-53,-53,-53,-53,-53,-54,-54,-54,-55,-56,-56,-57,-57,-57,-57,-57,-57,-56,-56,-56,-55,-54,-54,-55,-55,-56,-55,-55,-55,-56,-56,-56,-55,-55,-55,-55,-55,-55,-55,-55,-54,-55,-55,-55,-55,-55,-55,-55,-55,-55,-55,-55,-54,-54,-55,-56,-56,-56,-56,-56,-55,-54,-54,-54,-54,-54,-54,-54,-54,-54,-54,-55,-55,-55,-55,-55,-55,-55,-55,-56,-55,-59,-58,-56,-57,-57,-59,-61,-59,-58,-57,-56,-56,-56,-56,-57,-57,-58,-57,-58,-58,-58,-58,-58,-58,-59,-59,-59,-59,-59,-59,-59,-60,-60,-60,-60,-60,-60,-61,-62,-62,-64,-64,-63,-61,-61,-66,-65,-63,-63,-63,-64,-64,-64,-64,-65,-66,-66,-66,-66,-67,-67,-66,-66,-67,-68,-69,-68,-67,-67,-68,-67,-68,-68,-69,-68,-68,-68,-68,-68,-68,-68,-68,-69,-69,-69,-69,-69,-69,-69,-69,-69,-69,-68,-69,-69,-70,-70,-70,-69,-69,-69,-69,-69,-69,-69,-70,-70,-70,-70,-70,-71,-71,-71,-71,-71,-71,-70,-70,-70,-70,-70,-69,-70,-70,-70,-70,-70,-70,-70,-70,-70,-71,-72,-73,-74,-70,-69,-70,-70,-71,-71,-72,-72,-73,-73,-73,-74,-75,-76,-77,-75,-74,-74,-73,-71,-70,-72,-74,-74,-75,-76,-75,-75,-76,-77,-74,-74,-73,-73,-74,-74,-73,-74,-74,-73,-75,-74,-73,-73,-73,-74,-75,-73,-74,-74,-75,-76,-76,-75,-76,-77,-77,-78,-80,-80,-80,-80,-80,-80,-79,-79,-79,-78,-78,-79,-81,-80,-80,-80,-79,-79,-79,-80,-80,-80,-80,-80,-79,-79,-78,-78,-77,-77,-77,-78,-79,-79,-78,-78,-75,-75,-75,-74,-73,-72,-73,-73,-73,-74,-74,-73,-73,-74,-75,-76,-77,-79,-84,-82,-79,-83,-84,-82,-83,-83,-84,-84,-87,-92,-84,-91,-83,-97,-102,-111,-120,-119,-118,-118,-119,-121,-122,-123,-133,-131,-130,-128,-127,-128,-130,-133,-137,-135,-134,-133,-133,-132,-130,-128,-127,-132,-133,-136,-135,-135,-135,-137,-136,-136,-135,-137,-139,-140,-142,-143,-145,-148,-148,-149,-148,-149,-150,-150,-151,-152,-153,-154,-154,-155,-156,-156,-156,-157,-158,-158,-158,-159,-160,-159,-161,-162,-163,-165,-166,-166,-166,-166,-168,-169,-170,-170,-171
72.2229166666667,-52,-52,-52,-52,-52,-52,-53,-53,-53,-53,-53,-53,-53,-53,-53,-53,-53,-53,-52,-52,-52,-52,-52,-52,-53,-53,-53,-53,-53,-53,-53,-53,-53,-53,-53,-54,-54,-54,-54,-54,-54,-54,-54,-54,-54,-54,-54,-54,-54,-54,-54,-54,-53,-53,-53,-53,-53,-53,-53,-53,-53,-54,-54,-54,-54,-55,-55,-56,-56,-56,-57,-57,-57,-56,-56,-56,-56,-55,-55,-54,-55,-55,-55,-55,-55,-56,-56,-56,-56,-56,-55,-55,-55,-55,-55,-55,-55,-55,-55,-55,-55,-55,-55,-56,-55,-55,-55,-54,-54,-54,-54,-54,-56,-56,-55,-55,-55,-54,-54,-54,-54,-54,-54,-54,-54,-54,-54,-54,-55,-55,-55,-55,-55,-55,-55,-55,-55,-55,-55,-55,-55,-55,-55,-56,-56,-56,-56,-56,-55,-55,-55,-55,-56,-56,-56,-56,-57,-59,-58,-58,-58,-59,-58,-58,-58,-59,-59,-58,-58,-59,-60,-60,-60,-60,-60,-60,-60,-61,-63,-64,-64,-64,-62,-63,-63,-63,-63,-63,-64,-64,-64,-64,-65,-66,-66,-66,-66,-67,-66,-66,-66,-67,-68,-68,-68,-67,-67,-67,-67,-67,-68,-68,-68,-68,-68,-68,-68,-68,-68,-68,-68,-69,-69,-69,-69,-69,-69,-69,-70,-69,-69,-69,-69,-70,-70,-70,-69,-69,-69,-69,-69,-69,-69,-70,-70,-70,-70,-70,-71,-71,-72,-71,-71,-70,-70,-70,-70,-70,-70,-70,-70,-70,-70,-70,-71,-71,-71,-71,-71,-72,-73,-73,-72,-70,-72,-72,-71,-71,-72,-72,-73,-74,-73,-72,-74,-75,-76,-79,-77,-74,-75,-75,-74,-77,-74,-74,-74,-73,-75,-76,-76,-75,-77,-77,-76,-75,-75,-75,-75,-74,-74,-76,-75,-76,-76,-76,-74,-74,-74,-74,-75,-75,-75,-75,-76,-76,-76,-76,-77,-80,-80,-80,-80,-81,-81,-82,-82,-81,-81,-82,-81,-81,-83,-85,-82,-82,-83,-82,-81,-81,-82,-81,-80,-81,-81,-81,-81,-79,-78,-77,-79,-79,-79,-79,-79,-80,-81,-77,-77,-76,-76,-75,-75,-75,-74,-75,-76,-76,-76,-76,-77,-78,-79,-81,-83,-84,-84,-84,-84,-84,-83,-84,-84,-85,-84,-85,-96,-95,-85,-86,-108,-110,-117,-123,-121,-120,-121,-122,-125,-126,-126,-134,-131,-131,-129,-129,-130,-133,-135,-137,-137,-137,-136,-134,-133,-132,-131,-132,-129,-134,-135,-135,-134,-137,-136,-138,-137,-137,-139,-141,-143,-145,-147,-148,-153,-151,-152,-152,-152,-153,-153,-154,-155,-156,-157,-157,-158,-158,-158,-159,-159,-160,-161,-161,-161,-163,-162,-164,-165,-165,-167,-168,-168,-168,-169,-171,-171,-172,-173,-172
72.2270833333333,-52,-52,-52,-52,-52,-53,-54,-54,-54,-54,-55,-54,-53,-53,-53,-53,-52,-52,-52,-52,-52,-52,-52,-52,-52,-53,-53,-53,-53,-53,-53,-53,-53,-54,-53,-54,-54,-54,-54,-54,-54,-54,-54,-54,-54,-54,-54,-54,-54,-54,-54,-53,-53,-53,-53,-53,-53,-53,-54,-54,-54,-54,-54,-54,-54,-55,-55,-55,-56,-56,-56,-56,-56,-56,-56,-55,-55,-55,-55,-55,-55,-55,-55,-55,-55,-56,-56,-56,-56,-56,-56,-56,-55,-55,-55,-55,-55,-55,-55,-55,-55,-55,-56,-56,-55,-56,-55,-54,-54,-54,-54,-54,-54,-54,-54,-54,-54,-54,-54,-54,-54,-54,-54,-54,-54,-54,-54,-55,-55,-56,-55,-55,-55,-54,-54,-55,-55,-54,-54,-54,-54,-55,-56,-55,-54,-54,-55,-55,-54,-54,-54,-55,-55,-55,-55,-55,-56,-59,-58,-58,-58,-57,-57,-58,-58,-59,-58,-59,-58,-59,-59,-60,-59,-60,-60,-60,-60,-60,-60,-63,-62,-63,-63,-62,-62,-62,-62,-62,-64,-64,-64,-65,-65,-65,-65,-65,-65,-66,-66,-66,-66,-66,-67,-69,-68,-68,-67,-66,-66,-67,-67,-68,-68,-68,-68,-68,-69,-69,-69,-69,-69,-69,-69,-69,-69,-69,-69,-70,-70,-70,-69,-69,-70,-70,-70,-70,-70,-70,-70,-70,-70,-70,-69,-70,-71,-70,-69,-70,-71,-72,-72,-71,-70,-70,-70,-70,-70,-70,-70,-70,-70,-71,-71,-71,-72,-73,-73,-72,-72,-73,-74,-74,-73,-71,-72,-72,-72,-71,-73,-73,-73,-76,-73,-71,-74,-74,-74,-76,-78,-76,-74,-76,-75,-72,-74,-77,-78,-76,-76,-77,-76,-76,-78,-79,-77,-77,-77,-77,-77,-77,-77,-77,-77,-77,-77,-76,-76,-75,-74,-75,-76,-74,-76,-77,-77,-78,-79,-81,-82,-81,-81,-81,-81,-81,-82,-84,-84,-84,-84,-85,-84,-84,-83,-83,-83,-82,-82,-83,-83,-83,-83,-83,-82,-83,-82,-83,-83,-83,-82,-82,-81,-80,-82,-81,-81,-81,-81,-82,-83,-79,-77,-83,-81,-80,-79,-80,-81,-81,-81,-81,-81,-82,-83,-84,-84,-82,-82,-84,-84,-84,-84,-85,-84,-85,-85,-82,-86,-105,-108,-110,-112,-113,-120,-125,-123,-122,-122,-126,-126,-127,-127,-138,-133,-131,-130,-130,-132,-134,-138,-139,-139,-139,-138,-137,-136,-135,-134,-133,-130,-131,-136,-135,-136,-134,-133,-138,-141,-140,-140,-144,-146,-150,-150,-152,-153,-154,-153,-156,-155,-155,-155,-157,-158,-158,-159,-161,-161,-161,-160,-161,-162,-162,-163,-164,-163,-164,-165,-166,-167,-168,-168,-170,-170,-171,-172,-173,-172,-175,-176,-176
72.23125,-52,-54,-55,-53,-52,-52,-52,-54,-54,-53,-53,-53,-52,-53,-53,-53,-53,-53,-52,-52,-52,-52,-52,-52,-52,-53,-53,-53,-53,-53,-53,-53,-53,-54,-53,-54,-54,-54,-54,-54,-54,-54,-54,-54,-54,-54,-54,-54,-54,-54,-53,-53,-53,-53,-53,-53,-53,-54,-54,-54,-54,-54,-54,-54,-54,-54,-55,-55,-55,-55,-55,-56,-55,-55,-55,-55,-55,-55,-55,-55,-55,-55,-55,-55,-55,-56,-56,-56,-56,-56,-56,-56,-56,-55,-55,-55,-55,-55,-55,-55,-55,-56,-56,-56,-56,-56,-55,-55,-54,-54,-54,-54,-54,-54,-54,-54,-54,-54,-54,-54,-54,-53,-54,-54,-54,-54,-55,-55,-56,-56,-56,-54,-54,-54,-54,-54,-54,-54,-54,-54,-54,-55,-55,-55,-55,-55,-55,-55,-55,-54,-54,-54,-54,-54,-55,-55,-56,-56,-56,-56,-56,-56,-57,-57,-57,-58,-58,-59,-58,-58,-59,-59,-59,-59,-59,-59,-59,-59,-60,-63,-63,-62,-62,-62,-62,-62,-62,-62,-62,-65,-65,-65,-65,-65,-66,-63,-64,-64,-65,-65,-65,-65,-65,-69,-66,-66,-67,-66,-66,-67,-67,-67,-67,-68,-68,-68,-69,-69,-69,-68,-68,-69,-69,-69,-69,-69,-69,-70,-70,-70,-70,-70,-70,-70,-70,-70,-70,-70,-71,-71,-72,-70,-69,-69,-71,-70,-69,-71,-72,-71,-72,-71,-70,-71,-70,-70,-70,-71,-71,-71,-72,-72,-72,-72,-73,-74,-73,-71,-74,-75,-75,-74,-72,-74,-77,-73,-72,-71,-72,-74,-74,-73,-73,-73,-73,-74,-74,-75,-76,-75,-75,-76,-76,-77,-76,-77,-77,-76,-76,-77,-78,-78,-78,-77,-77,-78,-78,-78,-77,-77,-77,-78,-90,-78,-80,-80,-80,-80,-79,-79,-79,-79,-79,-80,-81,-81,-81,-82,-82,-81,-82,-82,-83,-85,-85,-86,-85,-85,-85,-85,-85,-85,-85,-84,-84,-84,-84,-84,-84,-84,-83,-84,-83,-84,-85,-86,-87,-87,-87,-87,-86,-84,-84,-84,-83,-83,-84,-83,-83,-84,-85,-87,-83,-87,-87,-86,-87,-86,-86,-86,-86,-87,-88,-89,-88,-86,-83,-83,-84,-84,-84,-86,-85,-86,-87,-85,-78,-86,-86,-116,-118,-117,-127,-126,-125,-124,-126,-128,-128,-128,-128,-136,-135,-132,-131,-132,-132,-136,-139,-141,-141,-141,-141,-140,-139,-137,-136,-134,-130,-129,-140,-138,-140,-138,-139,-143,-146,-146,-147,-150,-151,-155,-155,-156,-154,-156,-156,-157,-157,-157,-158,-158,-159,-159,-161,-163,-164,-163,-162,-163,-164,-165,-167,-169,-165,-166,-166,-167,-167,-169,-170,-172,-173,-174,-174,-175,-176,-177,-178,-180
