73.53125,-151,-150,-151,-152,-153,-154,-155,-155,-155,-154,-154,-153,-151,-148,-144,-139,-135,-134,-134,-135,-135,-136,-137,-138,-141,-145,-149,-153,-156,-159,-161,-161,-160,-160,-160,-160,-159,-159,-160,-162,-165,-167,-163,-162,-162,-165,-165,-165,-164,-166,-167,-168,-166,-162,-161,-163,-163,-164,-167,-168,-169,-169,-168,-167,-165,-165,-168,-169,-169,-172,-171,-169,-167,-167,-172,-171,-170,-171,-171,-171,-172,-172,-171,-172,-171,-172,-172,-174,-175,-174,-174,-172,-172,-172,-172,-173,-168,-168,-173,-175,-176,-175,-173,-171,-171,-171,-170,-170,-172,-171,-172,-174,-175,-175,-175,-175,-175,-175,-175,-174,-173,-175,-176,-178,-178,-179,-179,-179,-179,-179,-178,-178,-177,-174,-172,-169,-165,-161,-156,-152,-149,-147,-144,-139,-136,-137,-135,-133,-134,-138,-144,-149,-151,-151,-151,-151,-153,-155,-156,-156,-154,-153,-153,-155,-155,-153,-153,-155,-160,-162,-163,-163,-164,-169,-174,-177,-176,-177,-180,-184,-186,-187,-188,-188,-188,-189,-189,-189,-189,-189,-189,-191,-190,-192,-191,-192,-191,-192,-196,-195,-188,-188,-191,-193,-194,-195,-194,-194,-192,-191,-191,-192,-192,-189,-193,-193,-196,-194,-193,-192,-195,-196,-196,-199,-198,-198,-202,-202,-204,-200,-202,-204,-204,-204,-204,-205,-206,-207,-207,-207,-206,-208,-208,-208,-209,-209,-210,-209,-208,-206,-204,-203,-202,-202,-203,-204,-206,-207,-209,-210,-213,-216,-219,-221,-221,-217,-217,-219,-221,-221,-220,-220,-222,-223,-223,-224,-224,-226,-226,-227,-227,-227,-227,-228,-229,-231,-237,-237,-236,-234,-233,-232,-232,-232,-232,-233,-233,-234,-236,-237,-239,-240,-241,-242,-242,-242,-242,-241,-241,-241,-241,-242,-242,-242,-243,-244,-244,-245,-246,-247,-248,-248,-249,-250,-250,-251,-252,-252,-253,-253,-254,-255,-255,-256,-257,-258,-258,-259,-260,-261,-262,-263,-264,-265,-266,-267,-268,-269,-270,-270,-271,-272,-272,-271,-270,-271,-273,-277,-280,-280,-275,-269,-270,-270,-286,-283,-281,-278,-277,-275,-276,-275,-275,-277,-278,-280,-282,-283,-286,-289,-293,-280,-281,-282,-283,-283,-284,-285,-285,-285,-286,-286,-287,-287,-288,-288,-288,-288,-289,-290,-291,-291,-292,-292,-292,-295,-295,-296,-296,-297,-297,-300,-301,-304,-310,-309,-311,-313,-314,-313,-314,-316,-318,-319,-321,-323,-326,-326,-327,-330,-331,-332,-333,-335,-337,-335,-336,-334,-336,-336,-340,-341,-341,-342,-344,-345,-348,-350,-350,-352,-355,-358,-363,-367,-369,-368,-375,-375,-385,-382,-380,-379,-381,-385,-389,-393,-396,-396,-397,-399,-400,-401,-403,-408,-415,-420,-425,-425,-426,-426
73.5354166666667,-152,-152,-152,-154,-155,-156,-156,-157,-157,-156,-155,-154,-152,-148,-144,-139,-135,-133,-133,-133,-133,-132,-132,-133,-136,-142,-149,-154,-157,-160,-161,-162,-162,-162,-163,-163,-164,-164,-162,-162,-162,-165,-164,-164,-162,-162,-164,-167,-167,-167,-169,-173,-172,-167,-166,-169,-167,-165,-167,-168,-169,-171,-169,-166,-169,-170,-169,-170,-169,-168,-170,-170,-171,-169,-170,-171,-171,-172,-172,-173,-171,-173,-173,-173,-172,-172,-172,-172,-171,-170,-169,-169,-170,-171,-173,-175,-175,-177,-176,-175,-172,-168,-168,-168,-168,-169,-169,-169,-171,-171,-172,-173,-174,-175,-175,-175,-175,-175,-175,-175,-174,-175,-177,-178,-178,-179,-179,-179,-179,-178,-178,-177,-176,-174,-171,-168,-165,-162,-158,-154,-151,-149,-146,-143,-142,-142,-141,-141,-143,-146,-151,-155,-157,-158,-158,-159,-160,-162,-163,-162,-161,-161,-161,-162,-161,-159,-159,-161,-165,-167,-168,-167,-169,-173,-177,-179,-178,-179,-184,-188,-189,-190,-189,-189,-191,-190,-190,-191,-192,-192,-196,-195,-193,-194,-192,-192,-191,-191,-194,-193,-187,-188,-191,-193,-195,-196,-195,-196,-195,-193,-193,-195,-195,-194,-193,-197,-194,-194,-195,-196,-195,-198,-198,-202,-202,-199,-200,-200,-204,-205,-206,-205,-205,-206,-207,-208,-203,-204,-207,-206,-206,-204,-208,-208,-210,-209,-210,-208,-209,-208,-206,-205,-204,-203,-203,-204,-205,-205,-206,-209,-212,-216,-219,-222,-222,-221,-221,-222,-224,-223,-223,-223,-223,-224,-226,-227,-227,-225,-225,-227,-227,-227,-228,-229,-229,-229,-236,-236,-234,-235,-234,-234,-234,-234,-234,-234,-234,-235,-236,-238,-240,-241,-242,-243,-243,-243,-243,-243,-242,-242,-242,-242,-243,-243,-244,-244,-245,-246,-247,-248,-248,-249,-250,-251,-251,-252,-253,-254,-254,-255,-255,-256,-257,-258,-258,-259,-260,-261,-261,-262,-264,-265,-266,-267,-268,-269,-268,-268,-269,-269,-271,-272,-271,-270,-269,-268,-271,-276,-282,-283,-276,-270,-290,-285,-285,-282,-281,-280,-278,-277,-277,-277,-278,-279,-281,-283,-284,-286,-288,-291,-294,-281,-282,-283,-284,-285,-286,-286,-286,-285,-285,-286,-286,-286,-286,-287,-287,-291,-293,-292,-294,-294,-296,-299,-303,-303,-299,-300,-302,-306,-306,-306,-305,-304,-306,-310,-313,-315,-316,-318,-319,-320,-321,-322,-324,-326,-327,-330,-332,-333,-334,-334,-335,-337,-335,-337,-338,-339,-339,-342,-344,-344,-346,-348,-349,-350,-350,-351,-352,-355,-357,-358,-360,-364,-366,-368,-371,-373,-375,-380,-382,-383,-386,-391,-401,-396,-397,-399,-399,-400,-401,-405,-410,-417,-421,-426,-428,-429,-429,-430
73.5395833333333,-154,-153,-154,-156,-157,-158,-158,-159,-159,-159,-158,-156,-154,-151,-147,-143,-141,-140,-140,-140,-138,-137,-134,-132,-135,-143,-151,-157,-158,-158,-162,-163,-162,-163,-162,-162,-163,-165,-165,-163,-160,-164,-166,-167,-167,-164,-163,-165,-168,-169,-169,-169,-169,-167,-169,-170,-163,-170,-169,-170,-170,-170,-168,-170,-171,-167,-168,-170,-174,-168,-165,-167,-168,-166,-167,-169,-170,-171,-171,-172,-171,-172,-171,-171,-171,-171,-170,-170,-168,-167,-167,-169,-171,-174,-175,-176,-175,-173,-170,-170,-169,-167,-167,-167,-167,-168,-168,-169,-170,-171,-172,-173,-174,-175,-175,-175,-175,-175,-175,-175,-175,-176,-177,-178,-178,-179,-179,-179,-179,-178,-178,-177,-175,-173,-171,-169,-166,-163,-160,-157,-154,-152,-150,-148,-148,-148,-149,-151,-153,-156,-159,-162,-164,-165,-166,-167,-168,-169,-170,-171,-170,-170,-171,-171,-170,-169,-169,-171,-173,-175,-175,-175,-176,-178,-181,-182,-181,-184,-188,-192,-190,-191,-190,-188,-191,-190,-190,-188,-192,-191,-194,-192,-192,-192,-191,-191,-191,-191,-192,-190,-187,-188,-192,-194,-196,-196,-196,-195,-195,-193,-193,-195,-196,-196,-197,-196,-194,-197,-197,-196,-197,-198,-198,-199,-200,-201,-203,-205,-207,-205,-206,-205,-205,-206,-207,-206,-205,-205,-205,-206,-205,-204,-212,-210,-210,-211,-211,-211,-210,-210,-209,-208,-207,-206,-206,-206,-206,-205,-205,-208,-213,-216,-219,-222,-223,-223,-223,-224,-225,-225,-225,-224,-224,-225,-227,-229,-228,-226,-226,-227,-228,-230,-231,-231,-231,-231,-230,-230,-231,-234,-234,-234,-234,-236,-236,-236,-235,-235,-236,-238,-240,-242,-242,-243,-243,-244,-244,-243,-243,-243,-243,-243,-244,-244,-245,-245,-246,-247,-248,-249,-249,-250,-251,-251,-252,-253,-254,-255,-255,-256,-257,-257,-258,-259,-260,-261,-261,-262,-262,-263,-264,-265,-267,-269,-269,-269,-268,-268,-268,-270,-270,-272,-272,-271,-268,-266,-268,-278,-287,-289,-289,-285,-285,-283,-280,-279,-278,-278,-279,-279,-279,-280,-282,-282,-284,-286,-288,-290,-292,-294,-291,-288,-284,-290,-286,-293,-288,-290,-287,-292,-293,-292,-294,-294,-292,-295,-298,-297,-299,-297,-298,-298,-299,-302,-303,-305,-305,-305,-304,-305,-306,-308,-309,-311,-312,-313,-315,-316,-315,-316,-319,-322,-323,-326,-328,-329,-331,-333,-334,-335,-336,-338,-339,-340,-340,-341,-343,-344,-345,-347,-349,-350,-351,-352,-353,-353,-353,-356,-358,-359,-360,-362,-364,-366,-368,-370,-372,-375,-378,-382,-385,-387,-389,-391,-392,-393,-394,-396,-399,-405,-411,-416,-419,-420,-421,-421,-422,-425,-426,-430
73.54375,-160,-157,-158,-159,-160,-160,-160,-161,-162,-162,-161,-160,-158,-156,-154,-152,-152,-152,-153,-152,-151,-149,-146,-145,-146,-152,-158,-161,-160,-159,-164,-166,-163,-166,-168,-167,-166,-164,-167,-167,-167,-168,-167,-168,-168,-168,-165,-164,-165,-166,-168,-168,-168,-168,-172,-173,-170,-170,-170,-172,-171,-169,-168,-169,-170,-168,-169,-171,-172,-168,-165,-168,-167,-169,-169,-168,-168,-169,-169,-171,-170,-169,-169,-170,-172,-171,-169,-170,-168,-170,-172,-174,-174,-175,-174,-171,-175,-172,-169,-169,-168,-168,-168,-168,-167,-168,-168,-169,-170,-171,-172,-173,-174,-174,-175,-175,-176,-176,-176,-176,-176,-177,-177,-178,-178,-179,-179,-179,-179,-178,-178,-177,-175,-174,-172,-170,-168,-165,-163,-160,-158,-156,-155,-154,-154,-155,-157,-160,-163,-165,-168,-170,-171,-173,-174,-175,-176,-177,-178,-178,-179,-179,-180,-181,-181,-180,-180,-180,-182,-183,-184,-182,-182,-183,-185,-187,-186,-188,-190,-193,-191,-193,-193,-190,-190,-191,-191,-192,-193,-192,-192,-192,-190,-191,-191,-192,-192,-193,-192,-194,-189,-189,-194,-194,-196,-195,-195,-195,-197,-195,-195,-196,-196,-198,-198,-196,-195,-196,-197,-197,-197,-199,-198,-198,-200,-202,-202,-204,-205,-206,-207,-207,-207,-207,-208,-208,-208,-205,-205,-207,-208,-204,-209,-209,-211,-212,-210,-212,-212,-212,-211,-210,-210,-210,-211,-210,-209,-208,-209,-211,-215,-218,-220,-222,-223,-223,-223,-224,-224,-225,-226,-225,-223,-225,-227,-228,-228,-227,-226,-227,-228,-230,-231,-231,-231,-231,-231,-232,-232,-234,-235,-234,-234,-234,-236,-235,-236,-236,-236,-237,-240,-241,-241,-241,-242,-242,-243,-242,-242,-243,-244,-244,-244,-245,-245,-246,-246,-246,-247,-248,-249,-250,-252,-252,-253,-254,-255,-255,-256,-257,-257,-258,-259,-259,-260,-261,-261,-262,-262,-262,-263,-264,-267,-269,-267,-267,-267,-267,-266,-270,-269,-271,-271,-272,-271,-273,-272,-282,-290,-286,-284,-282,-280,-279,-278,-279,-278,-278,-278,-279,-280,-281,-283,-286,-288,-289,-293,-295,-297,-286,-285,-285,-288,-287,-291,-289,-290,-289,-291,-291,-292,-292,-293,-295,-296,-295,-297,-297,-304,-302,-302,-302,-303,-304,-305,-306,-306,-308,-308,-308,-310,-312,-314,-315,-315,-315,-315,-315,-318,-320,-320,-327,-331,-325,-328,-333,-332,-332,-334,-335,-338,-339,-339,-340,-342,-345,-347,-348,-349,-350,-350,-350,-351,-353,-355,-355,-356,-359,-361,-363,-365,-367,-369,-370,-371,-373,-375,-380,-383,-389,-395,-398,-398,-397,-396,-399,-401,-405,-410,-415,-420,-423,-422,-422,-423,-423,-425,-427,-432,-438
73.5479166666667,-162,-162,-162,-163,-163,-163,-162,-163,-165,-165,-165,-164,-162,-160,-160,-159,-160,-161,-161,-162,-161,-161,-159,-157,-158,-160,-163,-165,-165,-167,-167,-168,-166,-169,-168,-166,-166,-165,-166,-165,-167,-163,-163,-166,-167,-169,-168,-169,-168,-168,-168,-167,-168,-168,-166,-169,-169,-170,-169,-169,-169,-168,-168,-170,-170,-170,-170,-171,-171,-168,-167,-169,-169,-170,-170,-170,-169,-169,-168,-171,-168,-166,-167,-168,-172,-173,-169,-172,-174,-174,-171,-168,-169,-174,-175,-175,-174,-173,-170,-169,-169,-169,-168,-168,-168,-168,-169,-170,-171,-172,-172,-173,-174,-175,-175,-176,-176,-176,-176,-176,-177,-177,-178,-178,-179,-179,-179,-179,-179,-178,-178,-177,-176,-174,-173,-171,-169,-167,-165,-163,-162,-160,-159,-159,-160,-161,-164,-167,-170,-172,-174,-175,-177,-178,-180,-180,-180,-181,-182,-181,-183,-184,-185,-185,-186,-186,-186,-185,-186,-186,-188,-186,-185,-185,-189,-190,-187,-190,-188,-192,-189,-194,-189,-189,-189,-190,-191,-191,-190,-191,-190,-193,-189,-189,-191,-194,-192,-195,-191,-198,-192,-199,-193,-194,-193,-194,-194,-194,-195,-200,-196,-197,-196,-198,-197,-195,-195,-198,-197,-200,-198,-200,-199,-200,-201,-203,-201,-202,-201,-203,-203,-204,-208,-204,-203,-207,-206,-208,-209,-209,-208,-207,-208,-209,-214,-211,-211,-213,-211,-212,-211,-212,-213,-213,-214,-214,-214,-213,-214,-215,-218,-219,-220,-221,-222,-223,-223,-223,-223,-223,-223,-225,-221,-224,-226,-226,-225,-228,-226,-227,-227,-228,-228,-230,-229,-229,-230,-231,-232,-232,-234,-233,-236,-233,-236,-235,-237,-237,-237,-237,-239,-239,-238,-239,-239,-240,-240,-239,-241,-243,-245,-246,-245,-245,-245,-246,-245,-245,-247,-248,-250,-252,-253,-253,-254,-255,-255,-256,-257,-257,-257,-258,-259,-260,-260,-261,-261,-261,-261,-262,-263,-263,-264,-263,-264,-265,-266,-268,-268,-268,-269,-269,-266,-270,-282,-287,-288,-286,-283,-282,-281,-280,-278,-278,-279,-279,-280,-281,-283,-284,-285,-286,-288,-289,-290,-293,-295,-287,-289,-286,-285,-287,-287,-289,-290,-290,-293,-291,-291,-293,-292,-295,-298,-298,-299,-300,-301,-301,-301,-304,-305,-306,-307,-307,-307,-309,-309,-310,-311,-311,-312,-314,-316,-317,-318,-320,-321,-324,-327,-334,-333,-332,-332,-333,-333,-334,-335,-336,-336,-338,-341,-344,-345,-345,-345,-345,-347,-348,-348,-349,-350,-355,-358,-361,-356,-365,-359,-363,-364,-365,-368,-369,-371,-372,-375,-377,-380,-385,-388,-391,-393,-394,-396,-399,-401,-405,-410,-415,-421,-423,-424,-425,-425,-425,-425,-425,-427,-435,-439,-450
73.5520833333333,-162,-162,-163,-164,-165,-164,-162,-164,-165,-165,-165,-165,-164,-162,-163,-163,-164,-164,-165,-166,-166,-166,-165,-164,-161,-160,-161,-164,-166,-167,-166,-166,-165,-168,-167,-166,-166,-166,-167,-167,-165,-163,-165,-166,-166,-167,-167,-164,-166,-171,-171,-168,-167,-166,-168,-169,-169,-169,-170,-170,-169,-169,-170,-172,-172,-172,-172,-171,-171,-169,-168,-169,-170,-171,-171,-169,-170,-169,-172,-171,-168,-167,-167,-168,-172,-174,-173,-172,-171,-173,-176,-176,-175,-177,-175,-177,-174,-173,-172,-171,-170,-170,-169,-169,-169,-169,-170,-170,-171,-172,-173,-173,-174,-175,-175,-176,-176,-176,-177,-177,-177,-178,-178,-179,-179,-179,-179,-179,-179,-179,-178,-177,-176,-175,-174,-173,-171,-170,-168,-167,-165,-164,-164,-164,-165,-167,-169,-172,-174,-176,-178,-179,-179,-180,-181,-181,-181,-181,-182,-181,-182,-183,-182,-183,-183,-184,-184,-185,-182,-185,-185,-186,-189,-186,-193,-187,-186,-186,-191,-187,-191,-188,-188,-188,-189,-190,-190,-191,-190,-191,-184,-192,-194,-191,-190,-191,-194,-192,-197,-192,-193,-194,-194,-194,-198,-195,-196,-195,-194,-195,-195,-197,-196,-198,-197,-199,-199,-199,-198,-202,-201,-201,-201,-206,-200,-206,-201,-205,-202,-209,-203,-208,-204,-205,-206,-207,-206,-208,-206,-207,-208,-212,-210,-212,-208,-211,-211,-211,-211,-215,-211,-212,-216,-216,-217,-216,-216,-217,-218,-219,-220,-220,-220,-220,-220,-221,-222,-222,-223,-222,-223,-223,-221,-223,-224,-224,-224,-225,-226,-233,-228,-228,-231,-231,-231,-233,-232,-232,-233,-233,-233,-233,-234,-237,-237,-238,-238,-239,-237,-239,-237,-239,-238,-242,-239,-240,-243,-241,-241,-244,-245,-246,-246,-246,-247,-248,-249,-248,-249,-249,-250,-254,-255,-254,-255,-256,-256,-257,-258,-258,-258,-258,-260,-260,-261,-261,-261,-261,-262,-262,-263,-263,-264,-263,-266,-267,-267,-267,-270,-270,-269,-272,-270,-283,-286,-282,-281,-281,-279,-278,-278,-277,-278,-279,-280,-280,-282,-283,-285,-286,-288,-290,-293,-297,-298,-294,-287,-284,-287,-287,-288,-288,-289,-290,-292,-293,-296,-293,-294,-297,-296,-297,-298,-299,-300,-302,-303,-303,-303,-304,-305,-306,-306,-308,-309,-309,-310,-310,-310,-316,-317,-319,-320,-322,-324,-328,-330,-334,-337,-335,-336,-336,-334,-335,-337,-336,-337,-339,-337,-343,-341,-343,-344,-346,-346,-347,-351,-355,-356,-357,-358,-363,-364,-366,-364,-365,-367,-368,-371,-373,-374,-379,-383,-389,-392,-394,-393,-392,-392,-392,-393,-396,-399,-405,-404,-412,-418,-420,-424,-424,-425,-426,-426,-426,-430,-436,-445,-453,-463,-465
73.55625,-164,-164,-163,-164,-165,-163,-164,-162,-162,-164,-162,-162,-163,-162,-163,-164,-164,-164,-165,-165,-165,-164,-161,-157,-153,-152,-156,-161,-164,-164,-163,-163,-164,-166,-167,-167,-167,-167,-167,-167,-165,-163,-165,-166,-166,-166,-167,-167,-168,-168,-168,-168,-171,-169,-167,-168,-170,-170,-170,-171,-173,-176,-175,-174,-174,-174,-174,-173,-171,-170,-169,-170,-170,-172,-172,-169,-169,-170,-171,-169,-170,-174,-172,-174,-173,-174,-177,-173,-170,-174,-176,-177,-177,-176,-176,-174,-174,-173,-172,-172,-171,-171,-171,-170,-170,-170,-171,-171,-172,-173,-173,-174,-174,-175,-176,-176,-176,-177,-177,-177,-178,-178,-178,-179,-179,-179,-179,-179,-179,-179,-179,-178,-177,-177,-176,-175,-173,-172,-171,-170,-169,-168,-168,-168,-169,-171,-173,-175,-178,-179,-181,-181,-182,-183,-181,-182,-182,-183,-182,-180,-183,-182,-183,-184,-185,-184,-185,-191,-185,-189,-187,-192,-185,-194,-187,-194,-187,-191,-188,-190,-194,-190,-187,-188,-189,-191,-192,-192,-191,-193,-192,-194,-199,-197,-194,-188,-193,-199,-199,-200,-200,-193,-186,-187,-189,-188,-190,-191,-195,-200,-198,-195,-195,-196,-197,-199,-200,-199,-199,-203,-202,-206,-203,-205,-202,-206,-204,-208,-209,-209,-210,-210,-211,-211,-211,-211,-209,-210,-210,-212,-213,-213,-215,-217,-217,-212,-217,-215,-213,-215,-212,-214,-218,-218,-217,-216,-217,-218,-219,-219,-219,-219,-218,-216,-216,-217,-219,-220,-221,-222,-222,-222,-221,-222,-223,-223,-224,-225,-227,-230,-228,-229,-231,-231,-232,-234,-233,-233,-234,-234,-235,-235,-237,-237,-238,-238,-239,-240,-240,-239,-238,-239,-241,-242,-242,-242,-243,-243,-244,-246,-247,-247,-247,-247,-249,-250,-250,-250,-249,-249,-251,-254,-255,-255,-256,-257,-257,-258,-259,-259,-258,-259,-260,-261,-262,-261,-262,-263,-264,-265,-266,-267,-267,-268,-270,-273,-278,-283,-280,-281,-287,-286,-284,-282,-280,-281,-280,-278,-278,-278,-278,-279,-279,-281,-281,-284,-285,-286,-289,-292,-294,-295,-297,-299,-297,-293,-290,-289,-290,-290,-289,-290,-293,-295,-297,-296,-296,-297,-299,-300,-302,-302,-302,-303,-305,-304,-305,-305,-306,-305,-305,-306,-306,-318,-316,-316,-317,-317,-320,-321,-324,-325,-326,-330,-333,-338,-338,-337,-336,-336,-337,-337,-338,-338,-340,-341,-345,-346,-345,-346,-346,-348,-348,-349,-350,-354,-355,-357,-360,-365,-365,-365,-366,-368,-369,-373,-375,-378,-380,-381,-383,-386,-389,-390,-389,-390,-391,-392,-394,-397,-400,-403,-413,-420,-425,-428,-428,-426,-425,-424,-424,-426,-429,-436,-446,-454,-461,-459,-467,-470
73.5604166666667,-164,-164,-162,-164,-164,-165,-165,-160,-161,-163,-162,-162,-162,-162,-163,-164,-164,-164,-164,-164,-163,-160,-155,-150,-145,-146,-151,-159,-163,-163,-163,-164,-165,-167,-167,-168,-168,-166,-165,-166,-165,-167,-166,-166,-168,-169,-168,-169,-168,-167,-170,-172,-171,-173,-170,-169,-168,-170,-171,-170,-171,-171,-176,-176,-174,-175,-175,-174,-173,-171,-170,-169,-169,-172,-173,-172,-172,-174,-174,-175,-174,-170,-173,-177,-176,-176,-176,-173,-171,-175,-177,-178,-178,-176,-174,-174,-174,-174,-173,-173,-172,-172,-172,-171,-171,-171,-172,-172,-173,-173,-174,-174,-175,-175,-176,-176,-177,-177,-178,-178,-178,-179,-179,-179,-180,-180,-180,-180,-180,-180,-179,-179,-178,-178,-177,-176,-176,-175,-174,-173,-173,-172,-172,-172,-173,-175,-176,-178,-180,-182,-184,-185,-186,-188,-186,-186,-184,-184,-187,-183,-187,-185,-191,-185,-185,-185,-186,-186,-196,-190,-189,-194,-194,-192,-191,-194,-188,-191,-189,-192,-194,-193,-192,-192,-193,-193,-193,-193,-193,-194,-196,-196,-195,-194,-193,-193,-193,-193,-185,-175,-181,-183,-173,-174,-177,-178,-181,-185,-189,-193,-193,-192,-191,-192,-194,-196,-198,-199,-200,-202,-202,-202,-203,-204,-205,-205,-205,-209,-210,-212,-212,-212,-210,-212,-211,-212,-213,-215,-215,-214,-214,-214,-216,-217,-218,-217,-216,-216,-216,-216,-215,-217,-219,-219,-218,-216,-217,-219,-219,-219,-218,-217,-214,-211,-210,-211,-213,-215,-217,-219,-220,-220,-220,-220,-222,-223,-223,-224,-226,-228,-228,-230,-231,-232,-233,-234,-234,-234,-235,-235,-236,-237,-238,-238,-239,-239,-239,-238,-237,-238,-239,-241,-242,-241,-241,-242,-243,-244,-246,-248,-248,-248,-248,-249,-250,-252,-253,-250,-249,-249,-251,-254,-255,-256,-256,-257,-258,-258,-259,-259,-259,-260,-261,-261,-262,-262,-262,-265,-267,-270,-271,-272,-272,-274,-278,-285,-288,-294,-287,-281,-281,-280,-279,-277,-276,-275,-279,-277,-278,-279,-279,-280,-282,-283,-285,-286,-289,-292,-295,-296,-302,-298,-293,-294,-293,-291,-292,-294,-293,-293,-294,-294,-295,-297,-298,-300,-300,-300,-302,-302,-303,-303,-304,-305,-306,-304,-306,-311,-316,-318,-320,-316,-317,-316,-317,-320,-320,-321,-323,-327,-330,-333,-335,-339,-338,-336,-336,-336,-336,-336,-336,-339,-339,-341,-344,-346,-346,-345,-345,-347,-347,-350,-357,-356,-357,-360,-363,-367,-367,-367,-369,-372,-373,-378,-378,-381,-381,-382,-383,-387,-388,-388,-387,-388,-392,-393,-396,-401,-405,-411,-417,-423,-426,-427,-427,-425,-424,-423,-423,-423,-432,-441,-446,-454,-462,-467,-467,-467,-475,-477
73.5645833333333,-165,-164,-164,-166,-166,-166,-167,-166,-164,-163,-163,-162,-162,-162,-163,-164,-164,-164,-164,-163,-161,-157,-152,-147,-144,-145,-151,-158,-162,-163,-164,-166,-167,-168,-167,-167,-168,-167,-165,-167,-166,-167,-169,-168,-168,-168,-168,-169,-169,-169,-170,-172,-169,-170,-171,-171,-171,-171,-170,-171,-171,-172,-176,-177,-174,-176,-177,-176,-174,-171,-171,-171,-169,-173,-174,-177,-173,-174,-175,-172,-172,-173,-171,-175,-177,-177,-175,-174,-175,-178,-178,-179,-178,-180,-178,-177,-176,-175,-175,-174,-174,-173,-173,-173,-172,-172,-173,-173,-173,-174,-174,-175,-175,-176,-176,-177,-177,-178,-178,-178,-179,-179,-180,-180,-180,-180,-180,-180,-180,-180,-180,-180,-180,-179,-179,-179,-178,-177,-177,-176,-176,-175,-175,-176,-177,-178,-179,-181,-183,-185,-186,-187,-189,-189,-188,-187,-186,-188,-193,-196,-187,-187,-187,-188,-186,-193,-186,-190,-188,-188,-189,-190,-191,-189,-190,-190,-190,-190,-191,-194,-194,-195,-196,-195,-195,-195,-193,-193,-193,-194,-196,-196,-195,-194,-193,-193,-193,-189,-181,-174,-176,-171,-162,-162,-165,-169,-173,-176,-180,-183,-185,-185,-185,-186,-188,-191,-194,-197,-200,-202,-203,-203,-204,-204,-205,-205,-203,-207,-210,-212,-211,-212,-213,-213,-212,-212,-213,-215,-215,-215,-214,-217,-216,-217,-218,-217,-217,-216,-217,-217,-217,-218,-220,-219,-219,-218,-219,-220,-220,-219,-218,-215,-212,-208,-205,-205,-207,-209,-212,-214,-215,-216,-217,-218,-220,-221,-223,-224,-226,-227,-228,-229,-231,-232,-233,-234,-234,-235,-236,-236,-237,-238,-239,-239,-240,-240,-239,-239,-238,-240,-241,-242,-243,-243,-244,-246,-245,-243,-245,-247,-248,-248,-248,-250,-251,-253,-254,-250,-248,-249,-252,-254,-256,-256,-257,-257,-258,-259,-259,-259,-260,-260,-261,-261,-261,-261,-263,-266,-271,-274,-276,-277,-278,-280,-283,-287,-284,-281,-279,-278,-277,-277,-277,-277,-277,-278,-277,-279,-278,-281,-282,-283,-285,-286,-288,-292,-294,-296,-294,-289,-289,-291,-289,-289,-290,-291,-292,-292,-293,-294,-295,-296,-297,-299,-300,-300,-300,-300,-301,-300,-302,-304,-306,-309,-310,-310,-314,-317,-319,-320,-319,-319,-320,-321,-322,-324,-325,-328,-330,-333,-337,-340,-340,-339,-338,-338,-339,-342,-341,-339,-340,-343,-345,-347,-347,-348,-350,-351,-351,-354,-354,-356,-360,-363,-371,-374,-374,-375,-375,-376,-378,-378,-379,-381,-382,-383,-387,-391,-394,-394,-395,-398,-399,-402,-406,-410,-413,-416,-419,-423,-426,-427,-426,-425,-424,-424,-433,-430,-425,-424,-446,-467,-468,-467,-471,-473,-475,-477,-478,-480
73.56875,-165,-165,-165,-165,-164,-161,-166,-166,-166,-164,-165,-165,-162,-162,-163,-164,-165,-165,-164,-163,-161,-157,-152,-147,-144,-145,-151,-157,-161,-163,-165,-168,-167,-169,-168,-167,-167,-168,-169,-168,-169,-168,-165,-165,-167,-168,-167,-167,-172,-169,-166,-172,-173,-172,-171,-171,-173,-172,-171,-170,-172,-173,-176,-177,-177,-178,-179,-178,-173,-172,-173,-176,-177,-176,-176,-175,-173,-170,-173,-177,-175,-175,-175,-176,-177,-175,-175,-175,-176,-177,-177,-176,-181,-182,-180,-179,-178,-177,-176,-176,-175,-175,-174,-174,-173,-173,-174,-174,-174,-175,-175,-175,-176,-176,-177,-177,-178,-178,-179,-179,-179,-180,-180,-180,-181,-181,-181,-181,-181,-181,-181,-181,-181,-181,-181,-181,-180,-180,-180,-179,-178,-178,-178,-179,-180,-181,-182,-184,-186,-188,-189,-190,-190,-191,-188,-188,-188,-189,-191,-193,-194,-193,-196,-191,-192,-191,-191,-189,-189,-189,-189,-188,-191,-189,-191,-190,-190,-191,-191,-193,-192,-195,-195,-193,-193,-196,-194,-194,-194,-194,-196,-197,-197,-196,-195,-195,-194,-191,-186,-181,-180,-173,-166,-164,-165,-167,-170,-172,-175,-177,-178,-179,-179,-180,-182,-185,-189,-193,-198,-202,-205,-205,-206,-206,-206,-207,-205,-207,-207,-212,-213,-212,-213,-216,-213,-214,-214,-215,-214,-214,-214,-219,-218,-220,-220,-219,-218,-217,-218,-218,-218,-219,-220,-220,-220,-220,-220,-221,-221,-220,-218,-215,-211,-207,-204,-203,-203,-205,-206,-209,-210,-212,-214,-216,-218,-220,-222,-223,-225,-226,-228,-229,-231,-232,-233,-234,-235,-236,-237,-237,-238,-239,-240,-240,-241,-241,-241,-240,-241,-242,-242,-243,-244,-245,-246,-246,-245,-243,-245,-247,-249,-249,-250,-251,-251,-251,-251,-251,-251,-252,-254,-254,-255,-255,-257,-258,-259,-259,-259,-260,-260,-261,-262,-262,-262,-262,-263,-268,-274,-279,-282,-282,-282,-281,-279,-279,-278,-276,-276,-275,-275,-274,-275,-275,-277,-277,-278,-280,-281,-284,-287,-288,-291,-293,-297,-284,-287,-286,-286,-287,-288,-289,-291,-291,-292,-293,-294,-294,-295,-296,-297,-297,-298,-299,-300,-302,-300,-300,-301,-302,-305,-308,-311,-314,-314,-315,-318,-318,-316,-316,-318,-321,-323,-323,-326,-329,-332,-337,-340,-341,-340,-338,-338,-338,-338,-339,-340,-340,-342,-346,-347,-348,-347,-348,-350,-351,-355,-357,-359,-362,-366,-370,-375,-377,-376,-377,-377,-378,-379,-379,-380,-381,-381,-383,-387,-391,-392,-394,-398,-403,-406,-409,-413,-414,-415,-417,-419,-423,-425,-425,-424,-424,-425,-437,-437,-437,-435,-435,-433,-459,-473,-470,-476,-474,-475,-476,-478,-479,-481,-481
73.5729166666667,-166,-165,-165,-165,-163,-163,-166,-166,-166,-167,-167,-167,-164,-163,-164,-165,-166,-166,-165,-163,-161,-159,-155,-151,-148,-146,-152,-158,-162,-164,-165,-169,-168,-168,-169,-171,-171,-169,-168,-168,-170,-168,-165,-166,-166,-167,-168,-168,-176,-171,-166,-169,-173,-173,-174,-176,-174,-173,-176,-173,-173,-173,-174,-179,-178,-177,-179,-181,-175,-176,-177,-176,-175,-175,-170,-177,-175,-174,-174,-176,-176,-177,-177,-176,-175,-175,-176,-178,-179,-179,-178,-176,-182,-182,-181,-180,-179,-178,-178,-177,-176,-176,-175,-175,-175,-175,-175,-175,-175,-176,-176,-176,-177,-177,-177,-178,-178,-179,-179,-179,-180,-180,-180,-181,-181,-181,-181,-181,-182,-182,-182,-182,-183,-183,-183,-183,-183,-183,-182,-182,-181,-181,-181,-182,-183,-184,-185,-186,-187,-189,-191,-190,-190,-193,-189,-190,-191,-193,-192,-192,-192,-191,-192,-192,-192,-191,-191,-190,-190,-190,-188,-191,-193,-192,-191,-194,-190,-192,-192,-192,-192,-191,-193,-193,-192,-194,-193,-195,-195,-195,-197,-198,-199,-199,-198,-198,-198,-196,-193,-190,-186,-181,-175,-172,-172,-172,-174,-175,-176,-177,-177,-177,-177,-177,-178,-180,-184,-188,-193,-199,-204,-204,-206,-207,-208,-209,-207,-211,-210,-210,-214,-214,-214,-214,-213,-216,-215,-214,-213,-213,-214,-219,-219,-220,-221,-220,-219,-219,-219,-219,-220,-221,-221,-221,-222,-222,-222,-222,-222,-221,-219,-216,-212,-209,-206,-204,-203,-202,-203,-204,-206,-208,-211,-214,-216,-219,-221,-222,-224,-226,-227,-229,-230,-232,-233,-234,-235,-236,-237,-238,-239,-240,-241,-241,-242,-242,-242,-243,-243,-244,-244,-245,-246,-247,-247,-247,-246,-246,-247,-247,-249,-254,-251,-250,-248,-250,-251,-259,-259,-263,-254,-254,-255,-255,-257,-260,-260,-260,-260,-261,-261,-262,-263,-263,-262,-260,-262,-267,-277,-282,-284,-281,-280,-278,-276,-275,-274,-274,-274,-274,-274,-275,-276,-277,-278,-279,-282,-284,-286,-289,-283,-283,-283,-284,-285,-287,-288,-289,-289,-290,-291,-292,-292,-293,-293,-294,-294,-295,-297,-297,-296,-297,-298,-300,-301,-301,-302,-302,-303,-305,-310,-313,-315,-316,-317,-316,-317,-317,-318,-320,-322,-325,-326,-329,-331,-334,-339,-341,-340,-338,-341,-341,-341,-341,-341,-343,-343,-345,-348,-349,-349,-351,-353,-354,-356,-358,-360,-366,-370,-373,-377,-378,-379,-381,-382,-383,-386,-386,-387,-389,-390,-394,-398,-404,-405,-405,-408,-412,-412,-413,-415,-416,-417,-419,-421,-424,-426,-426,-425,-427,-436,-440,-444,-448,-449,-450,-464,-471,-473,-473,-474,-479,-478,-477,-478,-479,-480,-481,-481,-482
73.5770833333333,-166,-166,-166,-165,-165,-165,-166,-167,-168,-168,-168,-167,-164,-165,-166,-168,-168,-168,-166,-165,-163,-162,-162,-163,-160,-158,-160,-164,-165,-168,-169,-168,-171,-170,-170,-167,-168,-167,-167,-167,-168,-167,-166,-166,-168,-171,-175,-175,-174,-175,-170,-173,-174,-174,-173,-174,-174,-172,-177,-178,-176,-175,-174,-174,-175,-177,-176,-177,-179,-179,-173,-168,-173,-171,-171,-176,-176,-176,-176,-177,-177,-177,-177,-175,-176,-176,-176,-177,-178,-178,-177,-180,-182,-180,-181,-181,-181,-180,-179,-178,-178,-177,-176,-176,-176,-176,-176,-176,-176,-176,-177,-177,-177,-178,-178,-178,-179,-179,-180,-180,-180,-181,-181,-181,-181,-182,-182,-182,-182,-183,-183,-184,-184,-185,-185,-185,-184,-184,-184,-184,-183,-183,-183,-184,-185,-185,-186,-186,-189,-190,-193,-190,-190,-191,-190,-191,-191,-194,-187,-191,-191,-189,-191,-193,-193,-192,-192,-192,-193,-192,-191,-195,-195,-193,-194,-196,-195,-194,-192,-192,-194,-195,-194,-193,-193,-194,-194,-196,-195,-196,-197,-199,-200,-200,-200,-200,-201,-201,-200,-198,-195,-190,-186,-184,-183,-183,-183,-183,-184,-183,-182,-181,-180,-179,-179,-180,-182,-184,-188,-196,-204,-204,-207,-209,-209,-210,-210,-210,-210,-211,-210,-215,-215,-215,-215,-217,-217,-216,-217,-220,-219,-219,-219,-220,-222,-222,-222,-221,-220,-221,-221,-222,-222,-223,-223,-223,-223,-224,-223,-222,-220,-217,-215,-211,-209,-206,-204,-203,-202,-202,-203,-205,-208,-211,-215,-217,-220,-222,-224,-225,-227,-229,-230,-232,-233,-235,-236,-237,-238,-239,-240,-241,-242,-242,-243,-244,-244,-245,-245,-246,-247,-247,-248,-249,-249,-249,-249,-249,-249,-250,-252,-255,-254,-255,-255,-250,-252,-251,-254,-261,-262,-260,-262,-262,-261,-261,-262,-262,-262,-263,-263,-264,-264,-264,-265,-265,-267,-267,-278,-279,-278,-276,-273,-274,-273,-272,-271,-273,-273,-275,-276,-277,-280,-281,-279,-278,-279,-279,-280,-282,-283,-284,-286,-287,-287,-288,-289,-289,-290,-290,-290,-291,-292,-293,-293,-293,-293,-295,-300,-303,-298,-298,-299,-301,-302,-303,-303,-303,-304,-310,-312,-316,-316,-314,-315,-316,-318,-319,-321,-323,-325,-329,-332,-336,-337,-338,-339,-340,-339,-339,-339,-340,-340,-342,-344,-348,-348,-348,-348,-348,-351,-353,-357,-358,-362,-367,-370,-377,-379,-380,-380,-381,-381,-383,-384,-384,-386,-389,-392,-399,-403,-408,-410,-411,-412,-413,-414,-416,-416,-417,-418,-421,-422,-428,-428,-433,-437,-443,-446,-460,-457,-456,-456,-458,-459,-467,-474,-476,-478,-479,-482,-483,-478,-479,-480,-480,-481,-483,-485,-487
73.58125,-167,-167,-166,-166,-166,-166,-167,-167,-167,-166,-166,-169,-169,-169,-169,-169,-171,-170,-167,-166,-166,-165,-168,-171,-170,-168,-168,-168,-169,-169,-169,-168,-166,-169,-166,-160,-161,-161,-163,-165,-166,-166,-166,-167,-170,-173,-175,-174,-174,-173,-176,-176,-176,-176,-177,-177,-177,-185,-179,-176,-175,-179,-175,-174,-174,-175,-178,-177,-177,-179,-181,-180,-179,-176,-176,-178,-178,-178,-178,-178,-178,-178,-177,-177,-178,-179,-178,-178,-177,-178,-176,-176,-178,-178,-180,-181,-182,-182,-181,-180,-179,-178,-177,-176,-176,-176,-177,-177,-177,-177,-178,-178,-178,-179,-179,-179,-179,-180,-180,-180,-181,-181,-181,-182,-182,-182,-183,-183,-183,-183,-184,-185,-186,-186,-186,-185,-185,-185,-186,-186,-185,-184,-184,-184,-186,-187,-188,-186,-190,-193,-190,-192,-193,-193,-191,-191,-191,-192,-189,-191,-190,-189,-189,-193,-193,-193,-192,-192,-193,-192,-192,-195,-195,-193,-195,-197,-195,-194,-193,-192,-194,-195,-194,-194,-196,-197,-197,-200,-199,-198,-199,-200,-201,-201,-201,-202,-203,-204,-204,-203,-201,-198,-196,-195,-195,-195,-194,-193,-193,-193,-192,-191,-189,-186,-185,-185,-185,-186,-188,-197,-206,-206,-207,-207,-208,-210,-211,-213,-211,-212,-217,-218,-217,-217,-217,-216,-217,-218,-218,-218,-219,-218,-221,-221,-222,-220,-221,-221,-221,-222,-223,-223,-224,-224,-224,-224,-225,-224,-224,-223,-221,-219,-217,-215,-212,-210,-208,-205,-203,-201,-201,-203,-206,-210,-214,-217,-219,-222,-223,-225,-227,-229,-230,-232,-234,-235,-237,-238,-239,-240,-241,-242,-243,-244,-245,-245,-246,-247,-247,-248,-249,-249,-250,-251,-251,-251,-251,-252,-252,-253,-255,-257,-258,-260,-260,-257,-255,-255,-254,-256,-258,-264,-268,-274,-262,-263,-264,-266,-266,-266,-266,-265,-265,-265,-268,-281,-280,-277,-276,-275,-273,-273,-272,-272,-273,-273,-274,-275,-277,-277,-278,-280,-281,-281,-281,-281,-282,-284,-285,-286,-286,-287,-287,-287,-288,-288,-289,-289,-290,-290,-290,-291,-292,-293,-293,-292,-293,-296,-300,-302,-300,-300,-301,-303,-304,-305,-305,-305,-305,-313,-312,-312,-313,-315,-317,-320,-321,-323,-325,-328,-332,-336,-340,-339,-338,-340,-342,-342,-343,-341,-341,-342,-344,-346,-347,-347,-348,-351,-354,-356,-358,-361,-364,-368,-372,-379,-382,-383,-383,-384,-385,-386,-387,-388,-391,-395,-399,-404,-406,-410,-412,-412,-412,-413,-415,-417,-417,-419,-421,-426,-432,-441,-446,-451,-452,-457,-460,-462,-461,-468,-467,-470,-472,-474,-476,-479,-479,-479,-479,-482,-482,-490,-502,-505,-513,-526,-519,-523,-519,-524
73.5854166666667,-167,-167,-167,-167,-167,-167,-167,-167,-167,-169,-171,-168,-167,-169,-170,-169,-171,-168,-166,-166,-168,-166,-167,-169,-169,-169,-170,-170,-168,-168,-167,-165,-163,-161,-158,-155,-155,-155,-158,-161,-164,-165,-166,-168,-170,-173,-174,-174,-174,-177,-176,-176,-177,-177,-177,-176,-178,-170,-173,-174,-176,-176,-176,-178,-175,-175,-174,-175,-177,-177,-178,-179,-183,-181,-180,-180,-179,-180,-179,-179,-179,-178,-178,-179,-181,-180,-176,-177,-176,-175,-176,-175,-177,-177,-179,-182,-183,-183,-182,-181,-180,-179,-178,-177,-177,-177,-177,-178,-178,-178,-179,-179,-179,-179,-180,-180,-180,-181,-181,-181,-181,-182,-182,-183,-183,-183,-184,-184,-184,-184,-185,-187,-188,-188,-187,-187,-186,-187,-187,-186,-186,-185,-185,-186,-188,-190,-191,-189,-188,-192,-187,-189,-192,-192,-191,-191,-191,-192,-191,-192,-191,-189,-189,-193,-193,-193,-192,-192,-192,-192,-193,-195,-195,-195,-196,-197,-196,-195,-194,-194,-195,-195,-196,-196,-198,-199,-199,-201,-201,-201,-201,-201,-201,-201,-202,-203,-204,-205,-206,-206,-205,-204,-203,-203,-203,-203,-203,-202,-202,-202,-202,-201,-199,-197,-195,-194,-193,-192,-193,-199,-203,-207,-210,-210,-211,-212,-213,-214,-213,-214,-213,-216,-216,-218,-217,-217,-219,-219,-218,-218,-219,-222,-223,-224,-223,-222,-222,-223,-223,-223,-224,-225,-225,-225,-226,-226,-226,-226,-225,-224,-223,-221,-219,-217,-216,-214,-212,-209,-206,-203,-201,-202,-205,-209,-214,-217,-220,-222,-223,-225,-227,-229,-230,-232,-234,-236,-237,-239,-240,-241,-242,-243,-244,-245,-246,-247,-248,-248,-249,-250,-251,-252,-252,-253,-254,-254,-254,-255,-256,-257,-259,-260,-262,-264,-264,-263,-262,-260,-258,-256,-259,-260,-265,-268,-273,-263,-264,-266,-266,-266,-266,-265,-265,-278,-277,-275,-274,-273,-273,-270,-271,-271,-274,-273,-274,-274,-276,-276,-276,-277,-279,-280,-281,-281,-282,-283,-284,-286,-286,-286,-286,-287,-287,-286,-286,-287,-288,-289,-289,-289,-290,-291,-291,-292,-292,-292,-293,-296,-300,-301,-300,-301,-302,-303,-305,-306,-306,-312,-311,-312,-312,-314,-315,-318,-320,-322,-325,-328,-333,-335,-340,-339,-338,-338,-338,-340,-341,-342,-343,-344,-345,-347,-347,-349,-348,-352,-355,-359,-360,-362,-366,-371,-376,-381,-383,-383,-383,-384,-385,-387,-388,-391,-394,-397,-400,-406,-409,-410,-411,-412,-413,-414,-414,-417,-419,-424,-431,-438,-447,-455,-460,-461,-463,-466,-469,-470,-471,-473,-473,-477,-478,-478,-546,-531,-521,-519,-514,-529,-526,-533,-548,-562,-572,-602,-622,-611,-659,-639,-630,-590
73.5895833333333,-167,-167,-167,-167,-168,-168,-168,-167,-167,-169,-170,-168,-169,-168,-168,-170,-168,-167,-165,-166,-168,-169,-170,-171,-171,-169,-169,-167,-166,-167,-165,-163,-159,-156,-154,-151,-150,-151,-154,-159,-161,-163,-165,-168,-171,-173,-175,-176,-175,-177,-176,-176,-176,-176,-174,-174,-174,-176,-176,-175,-175,-175,-175,-178,-177,-179,-177,-176,-176,-177,-177,-177,-178,-179,-181,-181,-180,-180,-180,-180,-179,-178,-177,-176,-176,-178,-178,-178,-179,-176,-178,-179,-179,-179,-180,-181,-183,-182,-184,-182,-181,-180,-180,-179,-178,-178,-178,-179,-179,-180,-180,-180,-180,-181,-181,-181,-181,-181,-181,-182,-182,-182,-183,-183,-184,-185,-185,-185,-185,-185,-186,-188,-189,-188,-189,-187,-186,-187,-189,-187,-187,-186,-190,-186,-186,-183,-182,-192,-192,-189,-186,-187,-191,-191,-191,-191,-191,-192,-192,-192,-192,-191,-191,-191,-192,-192,-191,-191,-192,-192,-193,-195,-195,-196,-197,-197,-197,-196,-196,-196,-196,-197,-197,-198,-199,-200,-200,-201,-202,-202,-202,-202,-202,-202,-202,-203,-204,-205,-206,-207,-207,-206,-206,-207,-207,-208,-208,-208,-208,-208,-209,-208,-207,-206,-205,-204,-202,-202,-202,-203,-204,-207,-209,-210,-210,-212,-213,-213,-216,-214,-218,-214,-218,-218,-218,-221,-221,-221,-221,-221,-221,-222,-224,-225,-226,-225,-225,-224,-224,-225,-226,-226,-227,-227,-227,-227,-227,-227,-226,-225,-224,-223,-221,-220,-218,-217,-215,-213,-210,-207,-204,-204,-206,-211,-215,-218,-220,-222,-223,-225,-226,-228,-231,-233,-235,-237,-238,-240,-241,-242,-243,-245,-246,-247,-248,-248,-249,-250,-251,-252,-253,-254,-255,-255,-256,-257,-257,-258,-259,-261,-262,-264,-265,-267,-267,-266,-263,-258,-260,-261,-260,-260,-262,-268,-266,-266,-265,-267,-268,-267,-268,-269,-269,-270,-271,-271,-270,-270,-272,-272,-272,-274,-275,-275,-276,-276,-278,-279,-281,-281,-282,-283,-283,-284,-285,-285,-285,-285,-285,-285,-285,-285,-286,-286,-287,-288,-289,-289,-288,-288,-288,-290,-291,-292,-292,-293,-295,-298,-301,-301,-301,-301,-303,-305,-307,-310,-312,-311,-313,-313,-314,-316,-319,-321,-323,-327,-328,-334,-338,-336,-336,-338,-339,-340,-341,-343,-344,-344,-345,-346,-348,-348,-351,-353,-355,-359,-360,-363,-366,-370,-375,-379,-380,-382,-384,-386,-387,-389,-392,-394,-399,-403,-409,-413,-413,-413,-411,-412,-413,-416,-421,-422,-427,-435,-439,-445,-451,-461,-464,-465,-468,-470,-471,-474,-474,-474,-475,-494,-509,-544,-544,-548,-576,-618,-643,-626,-609,-644,-637,-625,-650,-676,-701,-720,-739,-763,-792,-777,-758,-751
73.59375,-167,-166,-166,-167,-168,-168,-168,-167,-167,-168,-167,-167,-168,-170,-171,-172,-172,-170,-171,-172,-171,-170,-168,-169,-172,-171,-169,-167,-166,-166,-164,-163,-160,-158,-156,-153,-150,-149,-151,-155,-158,-161,-164,-168,-172,-175,-178,-179,-178,-178,-176,-176,-176,-176,-178,-178,-176,-175,-174,-173,-173,-173,-175,-177,-178,-180,-180,-182,-177,-175,-176,-176,-176,-177,-179,-180,-180,-180,-181,-183,-180,-178,-177,-177,-177,-179,-178,-178,-177,-179,-182,-183,-181,-179,-179,-179,-183,-177,-182,-181,-179,-180,-181,-180,-179,-179,-179,-180,-180,-181,-181,-181,-181,-182,-182,-182,-182,-182,-182,-182,-183,-183,-183,-184,-185,-186,-186,-186,-186,-185,-186,-187,-189,-186,-190,-188,-187,-188,-187,-187,-187,-188,-189,-188,-187,-185,-186,-191,-190,-189,-186,-186,-190,-190,-190,-190,-190,-191,-191,-193,-193,-195,-195,-193,-192,-192,-191,-191,-192,-193,-194,-195,-196,-197,-198,-198,-198,-198,-198,-198,-198,-198,-199,-200,-200,-201,-201,-202,-203,-203,-203,-203,-203,-203,-203,-204,-205,-206,-207,-208,-208,-208,-207,-207,-208,-209,-210,-210,-210,-211,-212,-211,-211,-211,-211,-211,-210,-209,-211,-211,-211,-212,-212,-210,-208,-210,-214,-213,-215,-220,-219,-215,-215,-221,-221,-224,-225,-225,-226,-227,-225,-224,-225,-229,-229,-227,-227,-224,-224,-226,-227,-228,-229,-229,-229,-229,-229,-228,-228,-227,-226,-225,-224,-222,-221,-219,-218,-216,-214,-211,-209,-209,-211,-214,-217,-220,-221,-223,-223,-224,-226,-228,-231,-233,-235,-237,-239,-241,-242,-243,-245,-246,-247,-248,-249,-250,-251,-252,-253,-254,-255,-256,-257,-258,-259,-259,-260,-261,-263,-264,-265,-267,-268,-269,-269,-267,-265,-264,-267,-266,-264,-265,-265,-265,-266,-267,-269,-268,-269,-270,-271,-271,-270,-271,-271,-272,-272,-273,-275,-275,-276,-276,-277,-278,-279,-281,-281,-280,-281,-283,-284,-284,-285,-283,-283,-284,-283,-284,-285,-286,-286,-288,-289,-289,-289,-289,-290,-291,-289,-288,-289,-291,-292,-294,-295,-296,-298,-300,-301,-302,-302,-303,-305,-311,-310,-309,-311,-312,-314,-316,-317,-320,-323,-326,-331,-332,-334,-337,-335,-336,-339,-340,-342,-343,-343,-344,-346,-347,-347,-348,-352,-355,-357,-359,-362,-365,-368,-372,-376,-380,-381,-382,-383,-386,-390,-391,-393,-395,-397,-399,-405,-410,-415,-416,-418,-418,-420,-421,-422,-424,-428,-433,-438,-447,-458,-463,-466,-467,-470,-473,-475,-476,-471,-478,-482,-493,-526,-548,-603,-596,-606,-628,-629,-647,-680,-692,-757,-795,-781,-756,-735,-735,-768,-794,-808,-835,-860,-879,-881,-897
73.5979166666667,-167,-166,-165,-166,-168,-169,-169,-170,-168,-169,-168,-168,-168,-171,-171,-173,-172,-174,-174,-169,-170,-170,-170,-172,-173,-172,-170,-168,-167,-166,-165,-164,-162,-161,-159,-157,-154,-152,-152,-154,-155,-159,-163,-169,-173,-176,-179,-179,-179,-178,-177,-178,-177,-177,-177,-178,-177,-174,-175,-176,-174,-174,-175,-176,-178,-180,-181,-181,-178,-177,-175,-175,-175,-176,-177,-178,-178,-180,-181,-185,-183,-180,-178,-179,-180,-180,-179,-179,-183,-183,-184,-183,-180,-179,-178,-178,-178,-178,-178,-178,-178,-181,-182,-181,-180,-180,-180,-181,-181,-182,-182,-182,-183,-183,-183,-183,-183,-183,-183,-183,-184,-184,-184,-185,-187,-188,-188,-187,-186,-185,-185,-186,-187,-188,-188,-189,-191,-192,-190,-188,-188,-189,-190,-191,-191,-189,-189,-191,-191,-190,-189,-188,-191,-191,-189,-190,-190,-191,-191,-193,-193,-195,-195,-194,-193,-193,-192,-192,-193,-194,-195,-196,-197,-198,-199,-199,-199,-199,-199,-199,-200,-200,-200,-201,-202,-202,-203,-203,-204,-204,-204,-204,-204,-205,-205,-205,-206,-207,-208,-209,-209,-208,-208,-208,-209,-210,-210,-211,-211,-211,-211,-212,-212,-213,-214,-214,-213,-213,-215,-213,-213,-214,-213,-212,-213,-212,-211,-213,-216,-216,-222,-219,-221,-219,-225,-228,-229,-228,-228,-227,-225,-226,-227,-229,-229,-227,-227,-224,-224,-227,-229,-230,-231,-231,-231,-231,-231,-230,-230,-229,-228,-227,-226,-225,-223,-222,-221,-220,-219,-217,-216,-215,-216,-218,-219,-221,-223,-224,-223,-223,-225,-228,-231,-234,-236,-238,-240,-241,-243,-245,-246,-248,-249,-250,-251,-252,-253,-254,-255,-256,-257,-258,-259,-260,-261,-262,-263,-264,-266,-267,-268,-270,-271,-271,-270,-269,-268,-268,-266,-264,-263,-264,-264,-266,-267,-268,-268,-268,-268,-269,-269,-269,-270,-269,-269,-272,-273,-274,-274,-273,-272,-272,-276,-281,-280,-281,-285,-282,-282,-283,-283,-284,-284,-283,-283,-284,-285,-286,-287,-288,-289,-291,-291,-292,-292,-295,-293,-293,-292,-291,-292,-294,-296,-297,-298,-299,-300,-301,-303,-305,-314,-311,-310,-308,-308,-309,-312,-314,-315,-318,-319,-323,-327,-332,-334,-334,-333,-336,-336,-338,-339,-340,-339,-342,-345,-346,-347,-349,-352,-355,-357,-360,-361,-365,-368,-374,-379,-380,-381,-382,-384,-387,-389,-390,-392,-397,-401,-405,-409,-412,-413,-415,-416,-418,-419,-420,-422,-423,-427,-434,-444,-452,-459,-464,-466,-470,-471,-474,-476,-476,-476,-480,-486,-506,-506,-506,-559,-588,-634,-648,-699,-747,-769,-765,-765,-824,-842,-859,-879,-870,-849,-845,-825,-827,-846,-866,-900,-924,-950,-926
73.6020833333333,-169,-167,-167,-168,-169,-170,-172,-174,-175,-173,-172,-173,-174,-171,-171,-169,-170,-175,-174,-175,-174,-173,-174,-175,-176,-174,-172,-169,-168,-167,-167,-166,-165,-164,-163,-162,-160,-159,-159,-163,-165,-166,-169,-173,-176,-175,-179,-177,-178,-178,-178,-178,-176,-176,-176,-177,-177,-178,-177,-176,-176,-176,-176,-177,-178,-179,-179,-179,-178,-178,-177,-177,-179,-177,-177,-179,-180,-180,-181,-181,-182,-184,-186,-178,-179,-179,-179,-183,-183,-184,-184,-183,-181,-179,-178,-178,-178,-179,-180,-181,-181,-182,-182,-180,-179,-180,-181,-182,-182,-182,-183,-183,-183,-184,-184,-184,-184,-184,-184,-184,-184,-184,-185,-186,-188,-189,-188,-188,-189,-188,-188,-189,-190,-189,-187,-188,-188,-188,-188,-188,-189,-189,-189,-190,-191,-189,-189,-191,-191,-190,-190,-189,-192,-192,-187,-187,-189,-190,-191,-192,-193,-195,-195,-195,-194,-194,-194,-194,-194,-195,-196,-197,-198,-199,-200,-200,-200,-201,-201,-201,-201,-202,-202,-203,-203,-203,-204,-204,-205,-205,-205,-205,-206,-206,-206,-207,-207,-208,-209,-209,-209,-209,-209,-209,-209,-210,-210,-211,-211,-211,-211,-212,-212,-213,-214,-214,-214,-213,-213,-210,-209,-213,-211,-214,-217,-217,-214,-217,-216,-219,-220,-219,-222,-222,-224,-230,-231,-229,-228,-227,-225,-227,-228,-229,-230,-229,-228,-230,-229,-229,-231,-232,-233,-233,-233,-233,-233,-232,-232,-231,-230,-229,-228,-227,-226,-225,-225,-225,-225,-224,-223,-222,-221,-219,-219,-221,-224,-225,-223,-222,-224,-228,-232,-235,-238,-239,-241,-242,-244,-246,-247,-249,-251,-252,-253,-254,-255,-256,-257,-258,-259,-260,-262,-263,-264,-265,-266,-267,-268,-270,-271,-272,-273,-272,-271,-269,-268,-267,-264,-263,-264,-265,-266,-268,-268,-269,-269,-269,-270,-271,-271,-272,-272,-272,-272,-273,-275,-276,-278,-280,-281,-283,-285,-287,-279,-279,-282,-282,-283,-282,-281,-282,-282,-283,-284,-286,-287,-288,-288,-290,-290,-291,-291,-292,-292,-294,-295,-296,-296,-296,-296,-297,-300,-300,-301,-301,-302,-304,-306,-306,-305,-305,-307,-309,-311,-312,-314,-316,-317,-323,-327,-329,-328,-329,-331,-332,-334,-337,-339,-340,-341,-344,-346,-346,-346,-348,-350,-352,-355,-357,-361,-365,-369,-375,-378,-378,-379,-382,-384,-388,-389,-390,-391,-393,-395,-400,-405,-409,-413,-417,-418,-419,-419,-421,-422,-424,-427,-436,-446,-455,-462,-466,-469,-472,-474,-477,-480,-480,-480,-481,-480,-480,-488,-488,-516,-523,-528,-538,-538,-624,-664,-753,-746,-783,-820,-845,-867,-889,-911,-930,-949,-954,-946,-951,-926,-932,-912,-954,-954,-1005
73.60625,-169,-173,-174,-172,-170,-171,-169,-169,-170,-173,-173,-175,-173,-171,-171,-171,-175,-179,-174,-176,-176,-176,-177,-178,-179,-177,-174,-172,-170,-169,-169,-169,-169,-168,-168,-168,-168,-169,-172,-174,-178,-172,-175,-176,-177,-176,-176,-178,-178,-178,-177,-176,-173,-173,-173,-175,-175,-175,-176,-178,-179,-179,-178,-178,-178,-178,-178,-178,-179,-180,-181,-183,-184,-180,-181,-180,-178,-178,-180,-181,-181,-183,-184,-185,-185,-187,-179,-181,-184,-184,-184,-183,-182,-181,-180,-179,-179,-179,-180,-180,-180,-178,-178,-179,-178,-180,-182,-182,-182,-183,-183,-184,-184,-184,-184,-184,-184,-184,-185,-186,-185,-186,-186,-186,-188,-188,-187,-189,-190,-190,-191,-191,-190,-188,-188,-187,-185,-185,-187,-187,-189,-189,-187,-187,-191,-189,-189,-192,-192,-191,-191,-191,-193,-191,-188,-188,-189,-190,-191,-192,-193,-195,-195,-196,-195,-195,-195,-195,-196,-197,-197,-198,-199,-200,-201,-201,-201,-202,-202,-203,-203,-203,-204,-204,-204,-205,-205,-206,-206,-206,-206,-207,-207,-207,-207,-208,-208,-209,-209,-210,-210,-210,-210,-209,-209,-210,-210,-210,-211,-211,-211,-212,-213,-214,-214,-214,-213,-213,-213,-214,-217,-214,-218,-216,-218,-218,-217,-221,-221,-221,-220,-220,-223,-223,-224,-229,-231,-229,-229,-228,-231,-229,-230,-231,-232,-231,-230,-229,-231,-232,-234,-235,-235,-235,-235,-235,-234,-234,-234,-233,-232,-232,-231,-230,-230,-229,-230,-230,-231,-231,-231,-228,-223,-217,-214,-217,-222,-226,-223,-222,-223,-228,-233,-237,-239,-240,-242,-243,-245,-247,-249,-251,-252,-254,-255,-256,-257,-258,-259,-260,-261,-263,-264,-265,-266,-267,-268,-270,-271,-272,-273,-274,-274,-273,-271,-268,-265,-266,-266,-268,-269,-270,-269,-269,-270,-269,-269,-272,-272,-271,-271,-272,-272,-273,-275,-276,-276,-280,-279,-280,-282,-285,-287,-281,-278,-280,-282,-283,-283,-282,-281,-281,-282,-284,-286,-287,-288,-289,-290,-290,-290,-290,-291,-292,-294,-297,-297,-298,-298,-299,-299,-298,-302,-302,-304,-305,-305,-308,-310,-309,-308,-308,-310,-311,-313,-315,-316,-319,-323,-327,-325,-325,-328,-331,-331,-335,-336,-338,-338,-341,-343,-344,-345,-347,-349,-352,-355,-356,-360,-364,-368,-373,-375,-377,-380,-381,-382,-384,-386,-390,-392,-395,-400,-403,-407,-408,-412,-417,-418,-420,-420,-422,-422,-423,-429,-436,-445,-455,-462,-466,-469,-472,-474,-478,-479,-481,-483,-486,-494,-495,-484,-570,-542,-544,-551,-571,-547,-547,-559,-570,-605,-642,-690,-733,-782,-822,-861,-899,-922,-946,-970,-992,-1012,-1028,-1050,-1082,-1088,-1073,-1073,-1067
73.6104166666667,-171,-174,-175,-173,-171,-171,-168,-168,-169,-171,-172,-174,-173,-172,-172,-173,-177,-178,-175,-176,-177,-178,-178,-177,-180,-177,-175,-173,-172,-172,-171,-171,-171,-172,-172,-172,-172,-174,-177,-177,-176,-176,-176,-177,-180,-176,-177,-178,-178,-178,-178,-179,-174,-170,-171,-173,-175,-175,-175,-178,-179,-179,-180,-178,-178,-177,-177,-178,-179,-181,-183,-186,-187,-185,-186,-185,-182,-179,-177,-177,-178,-180,-181,-181,-182,-184,-189,-186,-185,-185,-185,-184,-184,-183,-182,-181,-181,-180,-179,-178,-177,-182,-182,-180,-182,-183,-183,-183,-182,-183,-184,-184,-184,-185,-186,-186,-185,-186,-186,-189,-186,-188,-188,-188,-187,-187,-186,-187,-189,-189,-189,-187,-187,-189,-190,-190,-190,-189,-187,-187,-189,-189,-187,-187,-191,-189,-189,-192,-192,-192,-192,-192,-193,-191,-190,-189,-190,-191,-192,-193,-194,-195,-196,-196,-196,-196,-196,-197,-197,-198,-199,-200,-200,-201,-202,-202,-203,-203,-204,-204,-204,-205,-205,-206,-206,-206,-207,-207,-207,-207,-208,-208,-208,-208,-209,-209,-209,-210,-210,-211,-211,-211,-211,-211,-211,-211,-211,-211,-212,-212,-212,-213,-214,-214,-215,-214,-214,-214,-214,-215,-216,-217,-220,-219,-218,-219,-217,-220,-225,-222,-223,-224,-224,-224,-228,-226,-226,-228,-227,-226,-230,-233,-233,-234,-234,-231,-231,-231,-233,-235,-237,-238,-237,-237,-237,-237,-236,-236,-236,-235,-235,-234,-233,-233,-233,-233,-234,-235,-237,-239,-239,-235,-226,-215,-210,-212,-220,-226,-225,-225,-226,-231,-236,-239,-240,-241,-242,-244,-246,-248,-250,-252,-254,-256,-257,-258,-259,-260,-261,-262,-263,-265,-266,-267,-268,-270,-271,-272,-273,-274,-275,-276,-275,-274,-272,-271,-265,-266,-267,-268,-269,-269,-270,-273,-269,-271,-272,-272,-272,-273,-274,-275,-275,-277,-279,-280,-282,-284,-286,-289,-287,-285,-283,-280,-280,-282,-284,-284,-284,-283,-282,-282,-284,-286,-288,-288,-289,-289,-290,-291,-291,-292,-293,-294,-294,-297,-298,-299,-299,-300,-300,-300,-303,-303,-306,-306,-305,-310,-309,-308,-308,-309,-311,-312,-315,-318,-320,-323,-324,-323,-326,-329,-330,-331,-333,-336,-338,-340,-342,-343,-344,-346,-347,-349,-350,-353,-357,-361,-370,-374,-376,-377,-377,-379,-380,-382,-384,-388,-391,-393,-396,-399,-401,-403,-406,-411,-415,-418,-419,-420,-422,-423,-426,-433,-441,-449,-456,-461,-467,-470,-474,-477,-478,-480,-483,-492,-497,-503,-523,-520,-619,-593,-618,-664,-686,-704,-712,-718,-707,-722,-711,-708,-722,-731,-750,-778,-810,-848,-883,-926,-955,-987,-1019,-1047,-1087,-1109,-1073,-1086,-1086,-1101
73.6145833333333,-172,-173,-173,-172,-171,-170,-168,-168,-169,-170,-172,-173,-173,-173,-173,-175,-177,-178,-177,-178,-179,-178,-178,-178,-177,-175,-174,-176,-175,-174,-174,-175,-173,-174,-175,-176,-174,-175,-175,-175,-177,-179,-182,-181,-179,-178,-179,-179,-179,-178,-179,-178,-174,-168,-169,-170,-171,-172,-174,-177,-179,-179,-181,-180,-178,-176,-176,-178,-180,-182,-185,-187,-189,-189,-189,-187,-184,-182,-183,-179,-179,-180,-180,-181,-182,-182,-187,-189,-187,-186,-186,-185,-185,-185,-185,-184,-183,-182,-180,-178,-179,-183,-183,-182,-182,-180,-182,-183,-182,-183,-184,-183,-185,-187,-188,-188,-186,-187,-188,-187,-189,-187,-187,-186,-186,-188,-191,-191,-187,-185,-187,-187,-188,-189,-189,-188,-190,-193,-188,-188,-189,-189,-188,-188,-190,-190,-190,-192,-192,-193,-193,-193,-193,-192,-191,-191,-191,-192,-193,-194,-195,-196,-196,-197,-197,-197,-198,-198,-199,-200,-200,-201,-202,-202,-203,-204,-204,-204,-205,-205,-206,-206,-207,-207,-207,-208,-208,-208,-209,-209,-209,-209,-209,-210,-210,-210,-211,-211,-211,-212,-212,-212,-212,-212,-212,-212,-212,-213,-213,-213,-213,-214,-214,-215,-215,-215,-215,-215,-216,-217,-218,-219,-221,-220,-221,-221,-220,-223,-227,-229,-226,-230,-225,-225,-229,-236,-227,-228,-229,-228,-231,-234,-237,-234,-236,-235,-234,-233,-235,-240,-240,-240,-239,-239,-239,-238,-238,-238,-238,-237,-237,-236,-235,-235,-235,-236,-238,-240,-242,-245,-247,-242,-230,-215,-206,-208,-216,-225,-228,-228,-230,-234,-238,-239,-240,-241,-242,-244,-247,-249,-251,-254,-256,-257,-259,-260,-261,-262,-263,-264,-266,-267,-268,-269,-270,-272,-273,-274,-275,-276,-277,-278,-277,-276,-275,-275,-266,-266,-266,-267,-269,-271,-271,-272,-275,-272,-272,-273,-273,-274,-276,-277,-279,-279,-283,-287,-288,-289,-289,-290,-290,-288,-287,-285,-284,-285,-286,-286,-285,-284,-283,-284,-286,-288,-290,-289,-290,-291,-292,-293,-294,-295,-295,-297,-297,-298,-299,-299,-300,-302,-302,-302,-303,-305,-306,-306,-305,-311,-310,-309,-310,-312,-313,-315,-317,-318,-322,-328,-326,-325,-327,-329,-331,-333,-336,-339,-342,-343,-343,-344,-344,-347,-349,-352,-354,-359,-366,-367,-369,-370,-371,-372,-376,-379,-382,-386,-388,-391,-395,-398,-399,-401,-405,-409,-412,-414,-419,-422,-422,-424,-426,-430,-435,-439,-445,-454,-460,-465,-471,-474,-476,-479,-479,-480,-480,-483,-501,-507,-553,-562,-576,-583,-589,-604,-674,-705,-730,-752,-778,-818,-849,-871,-883,-863,-855,-854,-879,-816,-894,-980,-901,-901,-950,-984,-1018,-1048,-1077,-1099,-1099,-1135
73.61875,-172,-172,-172,-172,-170,-169,-168,-168,-169,-170,-171,-172,-172,-173,-174,-175,-177,-178,-178,-179,-179,-178,-177,-179,-179,-179,-177,-178,-176,-176,-176,-178,-176,-175,-176,-176,-177,-176,-176,-174,-174,-177,-179,-179,-178,-177,-178,-178,-178,-179,-178,-175,-170,-166,-166,-166,-167,-169,-174,-181,-181,-181,-183,-180,-178,-177,-177,-179,-181,-183,-185,-187,-189,-190,-190,-187,-184,-184,-184,-182,-180,-180,-182,-183,-182,-182,-184,-187,-187,-187,-186,-186,-187,-187,-187,-186,-184,-183,-182,-181,-182,-184,-183,-182,-183,-184,-183,-183,-182,-184,-186,-183,-186,-189,-188,-188,-187,-186,-186,-188,-188,-187,-188,-187,-187,-189,-191,-191,-187,-185,-187,-188,-189,-189,-189,-186,-186,-189,-188,-188,-189,-189,-189,-189,-190,-190,-191,-192,-192,-193,-194,-194,-193,-193,-192,-192,-193,-193,-194,-195,-196,-196,-197,-198,-198,-199,-199,-200,-200,-201,-202,-202,-203,-204,-204,-205,-205,-206,-206,-207,-207,-208,-208,-208,-209,-209,-210,-210,-210,-210,-211,-211,-211,-211,-211,-212,-212,-212,-212,-213,-213,-213,-213,-213,-213,-214,-214,-214,-214,-214,-215,-215,-216,-216,-216,-216,-216,-217,-217,-218,-219,-221,-222,-222,-223,-224,-225,-229,-233,-225,-229,-227,-225,-227,-230,-227,-227,-230,-231,-230,-232,-230,-231,-230,-235,-235,-239,-238,-239,-242,-242,-241,-239,-239,-239,-239,-238,-239,-239,-239,-239,-238,-237,-237,-237,-238,-240,-243,-246,-249,-250,-245,-232,-215,-206,-206,-214,-223,-229,-232,-234,-235,-236,-235,-237,-239,-242,-244,-247,-250,-252,-255,-257,-259,-261,-262,-263,-264,-265,-267,-268,-270,-271,-272,-272,-273,-273,-274,-275,-277,-277,-277,-276,-274,-272,-273,-267,-267,-268,-269,-271,-271,-272,-273,-274,-274,-275,-276,-276,-276,-278,-282,-280,-292,-294,-281,-285,-288,-292,-294,-291,-291,-291,-290,-289,-289,-289,-288,-287,-286,-285,-286,-290,-293,-290,-291,-291,-293,-294,-294,-295,-295,-295,-296,-298,-300,-300,-300,-301,-302,-302,-302,-305,-306,-308,-309,-312,-310,-311,-311,-313,-314,-316,-317,-319,-322,-327,-332,-335,-328,-330,-333,-336,-336,-340,-342,-343,-344,-345,-347,-347,-350,-352,-357,-363,-365,-366,-368,-370,-374,-376,-377,-380,-381,-386,-391,-394,-396,-397,-396,-397,-399,-403,-409,-414,-419,-422,-426,-429,-431,-433,-434,-437,-441,-450,-458,-466,-468,-472,-476,-479,-479,-479,-481,-483,-483,-508,-538,-543,-553,-563,-577,-579,-629,-660,-704,-734,-776,-790,-827,-863,-890,-929,-964,-996,-1012,-1033,-1053,-1053,-1089,-1108,-1108,-1118,-1126,-1135,-1141,-1146,-1177,-1177,-1181
73.6229166666667,-172,-171,-171,-172,-170,-169,-168,-169,-169,-170,-171,-172,-172,-173,-174,-176,-178,-179,-180,-180,-179,-178,-177,-178,-178,-179,-180,-179,-175,-177,-176,-177,-178,-178,-176,-175,-174,-170,-170,-170,-170,-178,-176,-176,-179,-178,-179,-179,-178,-179,-175,-168,-165,-163,-163,-163,-165,-166,-169,-173,-172,-176,-181,-182,-183,-182,-182,-182,-182,-183,-184,-187,-189,-191,-192,-189,-181,-182,-182,-184,-185,-182,-180,-181,-182,-183,-183,-184,-185,-186,-186,-187,-189,-190,-189,-188,-186,-185,-184,-184,-183,-184,-184,-184,-186,-185,-185,-186,-187,-185,-190,-188,-189,-188,-188,-190,-195,-192,-190,-189,-188,-187,-187,-188,-188,-189,-191,-192,-192,-190,-190,-190,-190,-189,-188,-187,-187,-189,-188,-188,-189,-189,-190,-190,-191,-191,-192,-193,-193,-194,-194,-194,-194,-194,-194,-194,-194,-195,-195,-196,-197,-197,-198,-199,-199,-200,-200,-201,-202,-202,-203,-204,-204,-205,-206,-206,-207,-207,-208,-208,-209,-209,-210,-210,-210,-211,-211,-211,-212,-212,-212,-212,-213,-213,-213,-213,-213,-213,-214,-214,-214,-214,-214,-215,-215,-215,-215,-215,-215,-216,-216,-216,-217,-217,-217,-218,-218,-218,-219,-220,-221,-222,-223,-224,-225,-226,-228,-231,-233,-229,-225,-229,-226,-230,-227,-228,-228,-229,-231,-235,-230,-230,-231,-236,-233,-237,-233,-231,-235,-237,-238,-236,-236,-236,-237,-237,-238,-239,-240,-240,-240,-239,-239,-238,-238,-240,-242,-244,-247,-248,-248,-242,-230,-215,-206,-206,-215,-223,-230,-233,-235,-235,-234,-233,-235,-238,-241,-245,-248,-251,-253,-256,-259,-261,-263,-264,-265,-266,-267,-269,-271,-273,-274,-274,-273,-273,-274,-275,-274,-276,-276,-273,-273,-271,-271,-270,-271,-270,-269,-270,-270,-272,-273,-274,-274,-275,-276,-279,-280,-281,-287,-292,-280,-278,-278,-279,-282,-285,-289,-297,-295,-294,-295,-295,-294,-292,-291,-291,-290,-288,-287,-289,-293,-296,-292,-292,-293,-294,-295,-296,-296,-296,-297,-300,-301,-302,-302,-302,-303,-303,-304,-306,-308,-309,-309,-313,-313,-311,-312,-314,-315,-317,-317,-320,-323,-326,-331,-336,-323,-331,-333,-336,-340,-340,-342,-345,-346,-348,-349,-350,-352,-353,-354,-359,-365,-368,-369,-371,-373,-376,-377,-379,-383,-388,-392,-396,-397,-398,-399,-401,-405,-412,-417,-419,-422,-425,-429,-430,-432,-433,-434,-438,-445,-450,-459,-463,-472,-471,-474,-476,-478,-478,-477,-477,-486,-489,-490,-498,-500,-516,-526,-538,-548,-558,-572,-625,-679,-714,-743,-786,-807,-834,-860,-902,-943,-972,-1036,-977,-977,-1027,-1054,-1054,-1069,-1087,-1104,-1125,-1146,-1191,-1191,-1235
73.6270833333333,-174,-174,-174,-171,-170,-171,-171,-170,-170,-171,-171,-172,-172,-173,-174,-176,-178,-180,-181,-180,-179,-177,-177,-177,-177,-175,-176,-176,-177,-178,-178,-178,-177,-176,-177,-175,-175,-171,-171,-172,-178,-185,-180,-180,-180,-180,-180,-178,-177,-176,-177,-166,-160,-161,-161,-162,-163,-164,-166,-167,-167,-171,-181,-182,-183,-182,-182,-182,-182,-181,-183,-185,-188,-191,-192,-192,-181,-183,-183,-184,-195,-185,-185,-183,-182,-183,-184,-184,-184,-185,-185,-188,-191,-192,-193,-189,-186,-185,-185,-184,-185,-187,-191,-195,-188,-187,-186,-185,-188,-191,-191,-192,-194,-190,-189,-189,-192,-193,-192,-191,-189,-187,-187,-188,-188,-189,-191,-192,-192,-190,-190,-190,-190,-190,-189,-188,-188,-189,-189,-189,-189,-190,-190,-191,-191,-192,-193,-193,-194,-194,-195,-195,-195,-195,-195,-195,-195,-196,-196,-197,-198,-199,-199,-200,-200,-201,-202,-202,-203,-204,-204,-205,-206,-207,-207,-208,-208,-209,-209,-210,-210,-211,-211,-211,-212,-212,-212,-213,-213,-213,-214,-214,-214,-214,-214,-215,-215,-215,-215,-215,-215,-216,-216,-216,-216,-216,-217,-217,-217,-217,-217,-218,-218,-219,-219,-219,-219,-220,-221,-221,-222,-223,-224,-225,-226,-227,-229,-231,-232,-229,-223,-225,-227,-226,-230,-228,-228,-227,-229,-235,-236,-234,-235,-232,-236,-232,-236,-232,-239,-232,-236,-233,-233,-235,-235,-236,-237,-238,-239,-239,-239,-240,-239,-239,-239,-240,-243,-245,-246,-246,-241,-235,-226,-218,-212,-212,-220,-227,-232,-236,-237,-236,-234,-234,-235,-239,-242,-245,-248,-251,-254,-258,-261,-263,-264,-265,-266,-268,-269,-272,-274,-277,-278,-276,-275,-277,-274,-275,-272,-272,-271,-270,-270,-269,-268,-267,-268,-271,-272,-270,-272,-274,-274,-275,-276,-277,-278,-279,-279,-279,-280,-281,-283,-283,-278,-282,-282,-284,-287,-291,-291,-297,-296,-299,-298,-298,-297,-296,-294,-292,-290,-292,-294,-293,-294,-295,-296,-296,-296,-297,-298,-299,-301,-302,-303,-304,-304,-304,-305,-305,-306,-308,-309,-309,-316,-314,-313,-313,-314,-316,-320,-320,-322,-325,-330,-334,-341,-345,-325,-331,-336,-340,-343,-344,-346,-349,-351,-352,-354,-355,-356,-357,-358,-360,-364,-374,-374,-376,-378,-380,-384,-387,-391,-395,-396,-396,-397,-399,-401,-405,-410,-415,-420,-423,-426,-427,-427,-426,-424,-424,-432,-443,-449,-460,-467,-468,-472,-474,-477,-477,-480,-479,-485,-486,-486,-487,-490,-490,-504,-512,-522,-526,-543,-551,-567,-585,-611,-669,-707,-749,-808,-836,-852,-865,-892,-933,-980,-977,-977,-1027,-1054,-1054,-1069,-1087,-1104,-1125,-1146,-1191,-1191,-1235
73.63125,-174,-174,-176,-176,-176,-175,-175,-174,-173,-173,-172,-173,-173,-173,-174,-176,-179,-181,-182,-182,-178,-176,-177,-177,-178,-177,-177,-177,-176,-173,-173,-176,-177,-179,-180,-178,-176,-174,-174,-175,-177,-177,-178,-179,-179,-178,-178,-177,-173,-170,-167,-160,-159,-160,-161,-162,-164,-164,-165,-165,-164,-167,-175,-179,-179,-182,-182,-179,-179,-178,-182,-184,-186,-190,-192,-186,-186,-183,-182,-182,-187,-187,-187,-187,-188,-186,-185,-185,-186,-187,-188,-189,-191,-192,-195,-193,-185,-186,-187,-186,-186,-187,-189,-190,-190,-191,-192,-190,-189,-191,-190,-191,-191,-189,-190,-190,-188,-190,-192,-191,-191,-192,-192,-191,-191,-190,-190,-191,-191,-191,-191,-191,-191,-190,-190,-189,-189,-189,-189,-190,-190,-191,-191,-192,-192,-193,-194,-194,-195,-195,-195,-196,-196,-196,-196,-196,-196,-197,-198,-198,-199,-200,-200,-201,-202,-202,-203,-204,-204,-205,-206,-207,-207,-208,-209,-209,-210,-210,-211,-211,-212,-212,-213,-213,-213,-214,-214,-214,-215,-215,-215,-215,-215,-216,-216,-216,-216,-216,-216,-217,-217,-217,-217,-217,-218,-218,-218,-218,-218,-219,-219,-219,-220,-220,-220,-221,-221,-222,-222,-223,-224,-225,-225,-226,-227,-228,-229,-230,-231,-229,-222,-229,-224,-225,-228,-227,-228,-227,-229,-228,-239,-233,-234,-235,-236,-236,-236,-236,-237,-232,-235,-240,-238,-235,-235,-235,-236,-237,-238,-239,-239,-240,-240,-240,-240,-241,-243,-245,-246,-245,-235,-232,-227,-227,-223,-223,-229,-234,-237,-239,-240,-240,-239,-239,-240,-242,-244,-247,-249,-252,-255,-258,-262,-264,-265,-267,-268,-270,-272,-274,-278,-281,-280,-275,-277,-277,-271,-270,-269,-269,-270,-269,-270,-270,-270,-271,-272,-272,-274,-274,-276,-277,-275,-277,-278,-278,-279,-280,-281,-281,-281,-282,-283,-286,-286,-284,-286,-285,-286,-287,-291,-299,-294,-297,-303,-303,-302,-301,-299,-297,-295,-296,-297,-296,-296,-296,-297,-298,-298,-298,-299,-301,-304,-305,-306,-306,-307,-308,-308,-309,-309,-310,-317,-319,-318,-316,-317,-318,-319,-321,-323,-326,-330,-332,-337,-343,-343,-332,-339,-341,-343,-347,-347,-348,-350,-353,-356,-357,-359,-360,-361,-362,-363,-365,-371,-378,-379,-382,-386,-390,-393,-397,-399,-399,-398,-398,-399,-403,-408,-413,-420,-428,-431,-432,-431,-430,-430,-430,-431,-440,-447,-455,-460,-468,-470,-472,-473,-476,-481,-481,-482,-486,-487,-488,-488,-490,-491,-500,-509,-520,-526,-535,-545,-555,-573,-584,-616,-666,-705,-748,-795,-817,-832,-839,-856,-872,-873,-842,-842,-872,-928,-928,-997,-1018,-1039,-1056,-1073,-1109,-1109,-1168
73.6354166666667,-173,-173,-174,-176,-176,-175,-178,-178,-177,-176,-175,-174,-174,-175,-174,-175,-177,-180,-181,-181,-177,-176,-177,-180,-179,-177,-177,-178,-178,-180,-180,-180,-180,-181,-183,-181,-179,-178,-178,-178,-178,-179,-178,-179,-179,-179,-179,-179,-174,-169,-166,-162,-162,-163,-163,-164,-165,-166,-166,-166,-166,-166,-170,-172,-174,-182,-182,-180,-181,-182,-183,-183,-183,-186,-186,-186,-185,-186,-184,-183,-185,-187,-189,-190,-192,-193,-192,-188,-186,-187,-189,-190,-191,-191,-191,-195,-187,-191,-192,-192,-191,-191,-190,-190,-188,-188,-191,-192,-191,-191,-190,-189,-189,-189,-192,-192,-190,-190,-191,-191,-193,-194,-194,-193,-192,-191,-191,-191,-191,-192,-192,-191,-191,-191,-191,-190,-190,-190,-190,-191,-191,-192,-192,-193,-194,-194,-195,-195,-196,-196,-196,-196,-196,-197,-197,-197,-198,-198,-199,-199,-200,-201,-202,-202,-203,-204,-204,-205,-206,-206,-207,-208,-209,-209,-210,-211,-211,-212,-213,-213,-214,-214,-214,-215,-215,-215,-216,-216,-216,-216,-217,-217,-217,-217,-217,-218,-218,-218,-218,-218,-218,-218,-219,-219,-219,-219,-219,-220,-220,-220,-220,-221,-221,-222,-222,-222,-223,-223,-224,-224,-225,-226,-227,-227,-228,-229,-229,-229,-229,-228,-229,-225,-226,-231,-226,-226,-229,-228,-230,-231,-232,-234,-235,-236,-235,-234,-235,-235,-236,-235,-237,-241,-240,-239,-237,-236,-236,-236,-237,-238,-239,-240,-241,-241,-241,-241,-243,-245,-246,-246,-238,-237,-234,-239,-237,-237,-239,-242,-243,-244,-244,-244,-244,-244,-245,-246,-247,-249,-251,-253,-255,-259,-262,-264,-264,-266,-268,-270,-272,-274,-275,-277,-280,-268,-270,-270,-269,-268,-269,-268,-268,-270,-269,-271,-271,-273,-273,-274,-275,-277,-280,-281,-281,-287,-281,-279,-280,-281,-281,-282,-283,-283,-284,-284,-285,-286,-289,-291,-284,-288,-287,-291,-294,-297,-304,-305,-307,-306,-306,-303,-301,-301,-301,-298,-297,-298,-299,-300,-301,-302,-302,-303,-306,-308,-308,-309,-310,-310,-311,-310,-309,-313,-322,-320,-319,-318,-321,-323,-325,-326,-329,-331,-334,-340,-345,-349,-343,-343,-343,-346,-350,-350,-350,-350,-350,-355,-361,-361,-363,-365,-366,-367,-369,-372,-377,-382,-384,-388,-393,-397,-400,-403,-402,-402,-401,-403,-407,-410,-417,-425,-431,-432,-431,-431,-430,-430,-431,-433,-438,-446,-461,-461,-462,-472,-474,-473,-478,-479,-482,-486,-488,-489,-490,-491,-491,-495,-502,-511,-524,-528,-539,-541,-554,-575,-601,-621,-654,-696,-734,-769,-803,-823,-835,-838,-838,-827,-809,-788,-788,-827,-896,-896,-956,-985,-1015,-1041,-1066,-1110,-1110,-1144
73.6395833333333,-173,-173,-173,-174,-174,-174,-175,-176,-176,-178,-179,-178,-178,-177,-176,-175,-173,-175,-174,-173,-174,-179,-177,-178,-177,-176,-177,-178,-179,-180,-181,-181,-180,-181,-184,-183,-182,-181,-180,-179,-181,-182,-183,-182,-182,-181,-180,-178,-175,-171,-168,-166,-165,-166,-166,-167,-168,-169,-169,-169,-169,-169,-170,-171,-176,-182,-182,-180,-181,-182,-183,-183,-183,-189,-188,-186,-190,-185,-185,-185,-185,-188,-191,-193,-196,-198,-200,-201,-202,-192,-189,-189,-190,-193,-193,-194,-194,-198,-193,-193,-194,-194,-192,-192,-193,-193,-194,-193,-192,-193,-195,-195,-195,-194,-194,-193,-191,-191,-192,-193,-194,-195,-194,-194,-193,-192,-192,-192,-192,-192,-192,-192,-192,-192,-191,-191,-191,-191,-191,-192,-192,-193,-194,-194,-195,-195,-196,-196,-197,-197,-197,-197,-197,-197,-198,-198,-198,-199,-200,-200,-201,-202,-203,-203,-204,-205,-206,-206,-207,-208,-208,-209,-210,-211,-212,-212,-213,-214,-214,-215,-215,-216,-216,-216,-217,-217,-217,-218,-218,-218,-219,-219,-219,-219,-219,-219,-219,-219,-219,-219,-219,-220,-220,-220,-220,-220,-221,-221,-221,-222,-222,-222,-223,-223,-223,-224,-224,-225,-225,-226,-226,-227,-228,-228,-229,-229,-229,-229,-229,-228,-229,-231,-228,-226,-228,-230,-230,-230,-230,-231,-235,-231,-235,-236,-236,-235,-235,-235,-236,-237,-239,-241,-241,-241,-239,-237,-237,-236,-236,-236,-238,-239,-240,-239,-239,-241,-243,-245,-246,-248,-243,-242,-241,-246,-245,-245,-247,-247,-248,-248,-248,-247,-247,-247,-248,-248,-250,-251,-253,-254,-257,-259,-261,-262,-261,-263,-268,-273,-270,-270,-270,-267,-269,-268,-268,-268,-268,-268,-268,-268,-268,-268,-269,-271,-272,-274,-276,-278,-281,-286,-287,-291,-291,-290,-285,-282,-281,-280,-282,-282,-282,-283,-285,-286,-287,-287,-289,-290,-290,-289,-291,-289,-293,-294,-300,-302,-307,-313,-313,-311,-308,-304,-299,-298,-299,-300,-302,-302,-303,-303,-304,-304,-307,-309,-310,-311,-312,-313,-315,-316,-316,-326,-324,-322,-322,-323,-324,-326,-327,-331,-334,-337,-342,-347,-352,-339,-343,-343,-345,-346,-350,-350,-350,-350,-350,-355,-361,-361,-367,-372,-373,-374,-375,-378,-383,-388,-391,-394,-398,-402,-405,-408,-409,-409,-409,-412,-415,-418,-421,-426,-429,-431,-430,-430,-431,-433,-439,-442,-461,-466,-467,-471,-473,-474,-479,-480,-485,-486,-487,-487,-488,-487,-489,-491,-504,-514,-521,-532,-542,-546,-559,-575,-594,-619,-645,-670,-703,-741,-776,-805,-830,-850,-864,-866,-856,-830,-803,-788,-788,-827,-896,-896,-956,-985,-1015,-1041,-1066,-1110,-1110,-1144
73.64375,-173,-173,-174,-174,-175,-175,-175,-177,-177,-176,-177,-177,-176,-176,-176,-178,-178,-177,-176,-175,-175,-175,-177,-174,-173,-175,-175,-175,-176,-179,-181,-181,-182,-184,-183,-182,-182,-183,-181,-179,-183,-182,-184,-183,-184,-183,-181,-179,-177,-174,-171,-170,-169,-170,-170,-171,-171,-172,-172,-173,-173,-173,-175,-177,-181,-183,-183,-184,-185,-186,-185,-185,-188,-190,-190,-190,-189,-188,-186,-186,-186,-188,-192,-194,-195,-193,-196,-195,-189,-190,-194,-190,-189,-190,-192,-193,-193,-195,-196,-200,-190,-195,-193,-193,-196,-195,-195,-193,-190,-192,-195,-195,-195,-196,-196,-195,-193,-193,-194,-195,-195,-195,-195,-194,-194,-193,-193,-192,-193,-193,-193,-193,-193,-192,-192,-192,-192,-192,-192,-193,-194,-194,-195,-196,-196,-197,-197,-198,-198,-198,-198,-198,-198,-198,-198,-199,-199,-200,-201,-202,-202,-203,-204,-204,-205,-206,-207,-207,-208,-209,-210,-211,-211,-212,-213,-214,-215,-216,-216,-217,-217,-217,-218,-218,-218,-219,-219,-219,-220,-220,-220,-221,-221,-221,-221,-221,-221,-221,-221,-221,-221,-221,-221,-221,-221,-222,-222,-222,-223,-223,-223,-224,-224,-225,-225,-225,-226,-226,-227,-227,-228,-228,-229,-229,-230,-230,-230,-230,-230,-231,-232,-232,-232,-232,-228,-228,-229,-231,-231,-233,-232,-234,-237,-236,-235,-234,-235,-236,-237,-239,-241,-242,-242,-242,-240,-239,-237,-236,-234,-233,-233,-233,-233,-231,-232,-235,-237,-236,-239,-245,-250,-249,-248,-248,-248,-249,-250,-250,-250,-251,-250,-249,-250,-251,-251,-255,-252,-258,-256,-258,-259,-261,-262,-262,-263,-266,-269,-274,-268,-266,-266,-267,-266,-268,-268,-268,-268,-268,-268,-269,-270,-272,-274,-275,-276,-278,-279,-281,-283,-288,-291,-294,-293,-292,-287,-285,-283,-282,-283,-282,-281,-284,-285,-286,-287,-289,-290,-292,-293,-294,-295,-296,-296,-297,-296,-301,-305,-314,-315,-315,-309,-301,-300,-300,-301,-303,-304,-304,-305,-306,-306,-307,-310,-312,-312,-313,-314,-315,-318,-319,-328,-328,-326,-325,-325,-327,-330,-332,-333,-336,-340,-343,-351,-353,-352,-345,-347,-345,-345,-348,-350,-355,-355,-360,-360,-370,-373,-373,-376,-378,-379,-381,-382,-387,-390,-395,-396,-398,-400,-403,-409,-414,-416,-416,-415,-418,-421,-422,-423,-427,-432,-433,-433,-434,-437,-445,-461,-459,-465,-469,-472,-474,-478,-479,-485,-487,-488,-489,-489,-490,-489,-494,-504,-513,-524,-538,-546,-552,-563,-578,-601,-620,-644,-669,-695,-723,-754,-786,-814,-845,-871,-895,-911,-911,-877,-817,-802,-768,-768,-802,-859,-859,-935,-975,-1016,-1047,-1078,-1132,-1132,-1171
73.6479166666667,-174,-175,-175,-176,-177,-177,-177,-177,-176,-176,-180,-178,-177,-177,-177,-176,-177,-178,-179,-180,-180,-178,-178,-177,-177,-177,-176,-175,-174,-177,-180,-183,-182,-182,-182,-181,-181,-185,-183,-181,-182,-182,-182,-182,-182,-182,-183,-181,-179,-176,-174,-173,-173,-173,-173,-174,-175,-176,-176,-177,-178,-179,-181,-185,-190,-189,-191,-193,-190,-187,-185,-189,-190,-189,-189,-189,-186,-186,-186,-186,-186,-186,-193,-194,-192,-189,-193,-193,-193,-193,-199,-194,-191,-191,-193,-193,-194,-195,-196,-197,-197,-202,-195,-195,-199,-197,-195,-191,-187,-187,-192,-196,-197,-198,-198,-197,-196,-196,-196,-196,-196,-196,-195,-195,-194,-194,-193,-193,-193,-194,-194,-194,-193,-193,-193,-193,-193,-193,-193,-194,-195,-196,-197,-197,-198,-199,-199,-199,-199,-199,-199,-199,-199,-199,-199,-199,-200,-201,-201,-202,-203,-204,-205,-205,-206,-207,-208,-209,-209,-210,-211,-212,-213,-214,-215,-216,-217,-217,-218,-218,-219,-219,-219,-220,-220,-220,-221,-221,-222,-222,-222,-222,-223,-223,-222,-222,-222,-222,-222,-222,-222,-222,-222,-222,-223,-223,-223,-224,-224,-225,-225,-225,-226,-226,-226,-227,-227,-228,-228,-229,-229,-230,-230,-230,-231,-231,-231,-231,-231,-231,-231,-232,-231,-228,-232,-228,-230,-229,-231,-232,-235,-232,-235,-236,-236,-235,-236,-237,-239,-241,-242,-243,-243,-243,-241,-240,-238,-235,-231,-228,-225,-224,-222,-219,-221,-228,-234,-235,-241,-248,-255,-253,-251,-250,-250,-250,-250,-251,-251,-252,-252,-251,-251,-256,-259,-260,-253,-264,-263,-258,-263,-264,-265,-263,-264,-267,-266,-266,-265,-266,-266,-267,-268,-269,-268,-270,-269,-270,-272,-272,-274,-276,-276,-279,-281,-283,-284,-285,-286,-289,-292,-294,-293,-292,-289,-287,-285,-284,-284,-284,-284,-286,-287,-287,-288,-289,-290,-293,-295,-296,-297,-297,-296,-295,-298,-301,-304,-306,-310,-313,-309,-301,-302,-302,-304,-305,-306,-307,-308,-309,-309,-315,-315,-314,-315,-316,-316,-318,-320,-321,-329,-328,-327,-328,-331,-331,-333,-337,-339,-342,-345,-349,-357,-359,-357,-353,-352,-350,-350,-352,-356,-360,-364,-370,-370,-374,-376,-376,-379,-381,-383,-386,-389,-395,-395,-402,-402,-402,-403,-404,-414,-418,-424,-425,-425,-428,-429,-427,-426,-428,-434,-436,-438,-445,-466,-466,-467,-470,-472,-474,-477,-478,-484,-486,-487,-488,-490,-492,-491,-492,-505,-512,-522,-543,-552,-574,-582,-588,-604,-625,-649,-672,-696,-720,-747,-775,-805,-834,-861,-888,-914,-941,-959,-955,-914,-828,-828,-808,-808,-831,-850,-850,-888,-921,-955,-987,-1019,-1087,-1087,-1141
73.6520833333333,-176,-178,-178,-179,-179,-180,-180,-178,-178,-178,-180,-179,-180,-180,-180,-177,-177,-179,-179,-178,-179,-180,-180,-181,-182,-181,-180,-179,-179,-180,-178,-176,-177,-177,-183,-184,-184,-184,-186,-184,-184,-183,-182,-184,-183,-183,-183,-182,-180,-178,-176,-176,-176,-176,-177,-178,-179,-179,-180,-181,-182,-184,-186,-189,-193,-194,-195,-193,-187,-187,-189,-189,-189,-189,-189,-190,-189,-191,-191,-190,-188,-186,-194,-195,-195,-194,-194,-192,-194,-196,-198,-198,-197,-197,-194,-193,-193,-193,-195,-198,-198,-198,-198,-205,-205,-201,-198,-194,-190,-189,-193,-196,-199,-200,-200,-199,-198,-198,-198,-198,-198,-197,-196,-195,-195,-194,-194,-194,-194,-195,-195,-195,-194,-194,-194,-194,-194,-194,-195,-195,-196,-197,-198,-199,-200,-200,-201,-201,-201,-200,-200,-200,-199,-199,-200,-200,-201,-201,-202,-203,-204,-205,-206,-207,-207,-208,-209,-210,-210,-211,-212,-213,-214,-215,-216,-217,-218,-219,-220,-220,-220,-221,-221,-221,-222,-222,-222,-223,-223,-224,-224,-224,-224,-224,-224,-224,-224,-224,-223,-223,-223,-223,-223,-224,-224,-224,-225,-225,-225,-226,-226,-227,-227,-228,-228,-228,-229,-229,-229,-230,-230,-231,-231,-231,-232,-232,-232,-231,-231,-231,-233,-233,-233,-234,-229,-227,-232,-232,-234,-233,-235,-238,-238,-236,-239,-237,-237,-239,-241,-243,-244,-245,-245,-244,-243,-241,-239,-235,-229,-222,-218,-217,-217,-216,-220,-228,-236,-238,-246,-254,-260,-258,-255,-253,-252,-252,-251,-252,-252,-252,-254,-256,-251,-254,-255,-256,-254,-257,-261,-258,-264,-265,-265,-263,-263,-263,-265,-266,-266,-266,-266,-266,-265,-266,-267,-269,-270,-271,-273,-274,-276,-278,-281,-281,-283,-285,-286,-287,-288,-290,-291,-293,-293,-292,-290,-288,-287,-286,-286,-286,-286,-288,-289,-289,-288,-289,-293,-296,-295,-295,-296,-297,-297,-298,-298,-300,-302,-304,-304,-312,-313,-314,-303,-304,-305,-306,-307,-308,-309,-310,-312,-316,-317,-316,-316,-318,-318,-320,-323,-328,-330,-331,-331,-332,-337,-337,-340,-341,-343,-346,-350,-357,-361,-362,-361,-359,-358,-356,-357,-359,-362,-365,-368,-370,-370,-374,-376,-376,-384,-386,-389,-392,-394,-398,-398,-403,-403,-405,-405,-408,-421,-421,-429,-430,-431,-434,-434,-432,-432,-439,-449,-456,-463,-464,-465,-467,-471,-474,-477,-479,-479,-485,-487,-488,-489,-490,-491,-491,-493,-504,-509,-523,-534,-561,-568,-593,-612,-627,-648,-674,-700,-723,-745,-769,-794,-822,-851,-879,-905,-929,-952,-976,-992,-991,-991,-906,-906,-892,-892,-887,-907,-907,-925,-958,-959,-969,-996,-1043,-1043,-1082
73.65625,-180,-181,-181,-180,-180,-180,-180,-180,-179,-177,-179,-178,-181,-175,-177,-179,-179,-180,-180,-179,-176,-177,-177,-178,-178,-179,-181,-182,-182,-182,-182,-183,-182,-182,-181,-179,-180,-184,-186,-187,-188,-186,-187,-186,-183,-182,-183,-182,-181,-179,-178,-178,-178,-179,-180,-181,-182,-183,-184,-184,-185,-187,-189,-192,-195,-197,-199,-194,-186,-191,-192,-192,-193,-193,-192,-191,-193,-196,-196,-196,-195,-195,-193,-193,-192,-189,-194,-203,-191,-191,-198,-192,-201,-196,-198,-200,-195,-195,-195,-196,-197,-199,-200,-201,-202,-205,-203,-199,-196,-195,-196,-199,-201,-202,-202,-201,-201,-200,-200,-200,-199,-198,-197,-196,-196,-195,-195,-195,-195,-196,-196,-196,-196,-195,-195,-195,-195,-195,-196,-197,-198,-199,-201,-202,-202,-203,-203,-203,-202,-202,-201,-201,-200,-200,-200,-200,-201,-202,-203,-204,-205,-206,-207,-208,-208,-209,-210,-211,-212,-212,-213,-214,-215,-217,-218,-219,-220,-221,-221,-222,-222,-222,-223,-223,-223,-223,-224,-224,-225,-225,-226,-226,-226,-226,-225,-225,-225,-225,-225,-225,-225,-225,-225,-225,-225,-225,-226,-226,-227,-227,-228,-228,-229,-229,-229,-230,-230,-230,-231,-231,-231,-232,-232,-232,-233,-233,-233,-233,-234,-235,-234,-235,-234,-234,-236,-229,-233,-236,-234,-235,-238,-235,-235,-234,-238,-238,-239,-241,-244,-246,-246,-246,-246,-245,-244,-243,-241,-236,-228,-218,-212,-214,-219,-223,-230,-237,-246,-252,-258,-263,-263,-260,-257,-255,-254,-254,-253,-254,-254,-254,-255,-257,-255,-257,-258,-256,-258,-258,-259,-260,-262,-262,-262,-264,-265,-265,-266,-266,-267,-266,-267,-268,-269,-271,-272,-273,-273,-274,-276,-275,-279,-281,-282,-282,-284,-286,-287,-288,-289,-290,-291,-292,-292,-291,-290,-289,-288,-288,-288,-288,-289,-290,-290,-290,-290,-291,-293,-292,-291,-295,-295,-297,-299,-300,-302,-303,-304,-304,-304,-304,-305,-307,-306,-305,-306,-308,-308,-309,-310,-312,-313,-316,-318,-318,-318,-320,-322,-324,-332,-329,-329,-333,-337,-337,-339,-341,-343,-344,-346,-350,-356,-359,-363,-365,-365,-364,-363,-363,-363,-365,-368,-371,-373,-375,-377,-383,-385,-386,-388,-391,-394,-396,-398,-403,-401,-404,-406,-407,-410,-412,-421,-421,-429,-430,-431,-434,-434,-438,-449,-453,-461,-465,-465,-468,-471,-473,-476,-480,-484,-486,-487,-488,-490,-491,-491,-492,-496,-502,-510,-520,-529,-543,-558,-579,-592,-616,-636,-658,-684,-717,-747,-770,-789,-811,-836,-864,-891,-919,-942,-961,-970,-978,-992,-991,-991,-984,-984,-977,-977,-942,-963,-963,-962,-963,-964,-969,-973,-1000,-1000,-1022
73.6604166666667,-180,-181,-180,-180,-180,-180,-180,-179,-179,-180,-180,-180,-181,-183,-182,-181,-180,-180,-179,-178,-178,-177,-176,-173,-174,-177,-178,-178,-180,-181,-181,-182,-184,-185,-185,-185,-183,-185,-186,-185,-187,-189,-188,-187,-184,-181,-182,-182,-181,-180,-180,-180,-181,-182,-183,-184,-185,-186,-187,-187,-187,-188,-190,-193,-195,-197,-197,-194,-189,-192,-193,-192,-191,-191,-191,-191,-192,-192,-195,-195,-195,-194,-195,-194,-193,-193,-191,-189,-190,-191,-195,-199,-194,-205,-200,-204,-204,-198,-196,-196,-197,-198,-200,-201,-201,-203,-205,-205,-202,-201,-201,-202,-203,-204,-204,-203,-203,-202,-202,-202,-201,-200,-198,-197,-196,-196,-196,-196,-196,-197,-197,-197,-197,-197,-197,-196,-196,-196,-197,-198,-200,-202,-203,-204,-205,-205,-205,-205,-204,-203,-202,-201,-201,-200,-200,-200,-201,-202,-203,-205,-206,-207,-208,-209,-210,-210,-211,-212,-213,-214,-214,-215,-216,-218,-219,-221,-222,-223,-223,-223,-224,-224,-224,-224,-224,-225,-225,-226,-226,-227,-228,-228,-228,-227,-227,-227,-227,-226,-226,-226,-226,-226,-226,-226,-227,-227,-227,-227,-228,-228,-229,-230,-230,-231,-231,-231,-231,-232,-232,-232,-233,-233,-233,-233,-233,-234,-234,-234,-233,-231,-232,-233,-233,-234,-231,-232,-232,-234,-240,-233,-239,-236,-239,-239,-238,-240,-240,-243,-246,-248,-248,-247,-246,-245,-245,-244,-243,-238,-229,-219,-214,-218,-227,-235,-243,-249,-255,-258,-261,-263,-263,-261,-259,-257,-256,-256,-256,-256,-257,-257,-259,-260,-261,-262,-262,-260,-260,-261,-264,-261,-262,-263,-263,-263,-264,-264,-265,-266,-266,-266,-266,-267,-268,-271,-269,-270,-270,-275,-276,-277,-281,-281,-282,-282,-284,-285,-286,-287,-289,-290,-290,-291,-291,-291,-291,-290,-290,-290,-290,-290,-291,-291,-292,-292,-292,-293,-293,-292,-292,-294,-296,-299,-302,-302,-303,-304,-305,-306,-307,-307,-308,-310,-309,-311,-313,-314,-311,-312,-313,-314,-317,-318,-319,-320,-322,-324,-325,-334,-334,-333,-334,-337,-339,-341,-343,-344,-346,-349,-354,-357,-362,-363,-365,-367,-368,-369,-369,-369,-370,-371,-374,-377,-380,-383,-387,-393,-396,-396,-397,-399,-400,-402,-406,-413,-413,-418,-421,-423,-426,-428,-429,-429,-432,-433,-434,-438,-438,-446,-461,-461,-463,-467,-472,-475,-474,-479,-484,-487,-488,-489,-490,-491,-492,-492,-493,-501,-512,-521,-531,-542,-552,-566,-582,-600,-616,-636,-657,-680,-709,-744,-776,-801,-820,-843,-869,-898,-927,-956,-979,-984,-991,-991,-1034,-1058,-1082,-1118,-1118,-1130,-1130,-1120,-1086,-1086,-1118,-1116,-1115,-1113,-1112,-1142,-1142,-1170
73.6645833333333,-179,-181,-179,-179,-179,-180,-180,-181,-182,-182,-182,-182,-183,-183,-182,-183,-181,-182,-180,-178,-181,-183,-181,-179,-181,-181,-181,-181,-181,-180,-181,-181,-181,-181,-181,-182,-187,-184,-185,-185,-186,-187,-186,-186,-182,-181,-182,-181,-181,-181,-181,-182,-183,-184,-185,-187,-188,-189,-190,-189,-189,-190,-191,-193,-194,-194,-194,-192,-193,-192,-192,-192,-196,-191,-194,-194,-193,-193,-193,-194,-188,-192,-195,-194,-194,-193,-192,-191,-191,-197,-195,-196,-199,-200,-201,-200,-205,-207,-199,-200,-198,-196,-198,-199,-200,-203,-204,-207,-206,-206,-205,-205,-205,-206,-206,-205,-205,-205,-204,-204,-202,-201,-200,-198,-197,-197,-197,-197,-197,-198,-198,-198,-198,-198,-198,-198,-197,-197,-198,-200,-202,-204,-206,-207,-207,-208,-208,-207,-206,-205,-204,-202,-201,-200,-200,-200,-201,-203,-204,-205,-206,-208,-209,-210,-211,-211,-212,-213,-214,-215,-215,-216,-217,-219,-221,-223,-224,-225,-225,-225,-225,-226,-226,-226,-226,-226,-226,-227,-228,-229,-230,-230,-230,-229,-228,-228,-228,-228,-228,-227,-227,-228,-228,-228,-228,-228,-228,-229,-229,-230,-230,-231,-232,-232,-233,-233,-233,-233,-233,-233,-234,-234,-235,-235,-234,-235,-235,-235,-236,-236,-234,-235,-235,-236,-235,-234,-234,-234,-235,-235,-236,-240,-236,-236,-237,-244,-239,-242,-247,-248,-248,-247,-246,-245,-244,-245,-244,-240,-234,-225,-222,-227,-237,-245,-251,-254,-257,-259,-260,-261,-261,-260,-258,-257,-257,-257,-257,-259,-260,-261,-263,-264,-265,-264,-263,-261,-262,-262,-263,-263,-262,-262,-264,-264,-265,-266,-267,-266,-267,-267,-270,-270,-271,-273,-274,-277,-272,-274,-276,-278,-280,-280,-281,-282,-283,-284,-284,-288,-289,-289,-289,-290,-290,-290,-291,-291,-291,-291,-291,-292,-292,-293,-294,-294,-295,-295,-295,-294,-295,-296,-298,-301,-302,-301,-302,-302,-306,-307,-308,-309,-311,-312,-313,-314,-315,-315,-316,-317,-315,-318,-319,-320,-322,-324,-325,-327,-339,-338,-338,-337,-338,-339,-342,-344,-345,-348,-350,-353,-358,-363,-367,-368,-368,-369,-371,-374,-376,-376,-376,-377,-380,-383,-386,-390,-395,-401,-405,-406,-406,-406,-406,-407,-411,-414,-415,-417,-422,-426,-431,-431,-432,-432,-437,-442,-446,-456,-461,-460,-463,-467,-470,-475,-475,-480,-484,-486,-487,-490,-491,-493,-492,-491,-498,-505,-509,-518,-530,-542,-553,-564,-574,-587,-603,-619,-636,-654,-672,-692,-719,-754,-788,-817,-841,-868,-899,-935,-964,-989,-997,-997,-1016,-1016,-1085,-1121,-1138,-1180,-1180,-1200,-1200,-1190,-1250,-1148,-1257,-1260,-1264,-1215,-1280,-1242,-1287,-1255
73.66875,-182,-182,-182,-182,-183,-183,-181,-180,-181,-182,-182,-182,-182,-183,-183,-183,-184,-185,-185,-186,-187,-188,-187,-186,-186,-184,-183,-183,-182,-181,-183,-181,-180,-179,-180,-189,-188,-188,-188,-187,-186,-185,-185,-187,-185,-187,-184,-182,-182,-183,-183,-184,-185,-186,-188,-189,-191,-193,-193,-191,-190,-189,-190,-192,-196,-193,-192,-192,-193,-194,-193,-196,-195,-195,-199,-200,-200,-192,-195,-191,-191,-191,-190,-191,-194,-196,-196,-196,-197,-200,-199,-196,-198,-198,-199,-199,-201,-207,-208,-209,-199,-200,-200,-200,-202,-203,-204,-203,-206,-208,-207,-207,-207,-207,-207,-207,-207,-207,-206,-205,-204,-203,-202,-200,-199,-198,-198,-198,-198,-199,-199,-199,-199,-199,-200,-199,-199,-199,-201,-203,-206,-207,-208,-209,-210,-210,-210,-209,-208,-207,-205,-203,-202,-200,-200,-200,-201,-203,-204,-206,-207,-208,-209,-210,-211,-212,-213,-214,-215,-216,-216,-217,-218,-220,-222,-224,-226,-227,-226,-226,-227,-227,-227,-227,-227,-227,-227,-227,-229,-230,-232,-232,-232,-230,-230,-229,-229,-229,-229,-228,-228,-229,-229,-229,-229,-229,-229,-229,-230,-231,-231,-232,-233,-234,-234,-234,-234,-234,-234,-234,-235,-236,-236,-236,-235,-235,-236,-237,-237,-237,-237,-236,-238,-239,-239,-239,-239,-239,-234,-238,-234,-238,-241,-239,-240,-241,-239,-236,-238,-242,-246,-247,-245,-244,-244,-245,-245,-243,-239,-235,-235,-238,-245,-250,-254,-256,-257,-258,-258,-258,-259,-259,-258,-257,-257,-257,-258,-260,-263,-264,-263,-264,-266,-263,-262,-260,-262,-263,-262,-262,-262,-263,-262,-265,-267,-267,-268,-269,-271,-271,-273,-276,-278,-271,-270,-272,-272,-274,-276,-276,-277,-278,-279,-280,-282,-283,-282,-287,-288,-286,-289,-289,-289,-290,-290,-291,-291,-292,-293,-294,-294,-295,-296,-297,-297,-298,-298,-298,-298,-299,-300,-302,-303,-303,-304,-305,-308,-307,-310,-310,-311,-313,-315,-316,-317,-318,-319,-321,-323,-326,-328,-334,-326,-327,-329,-340,-340,-339,-339,-339,-341,-344,-345,-346,-349,-352,-355,-359,-367,-369,-370,-371,-370,-372,-375,-379,-383,-384,-385,-388,-386,-391,-392,-396,-401,-407,-412,-414,-413,-411,-411,-412,-415,-416,-417,-419,-424,-428,-431,-431,-432,-432,-437,-442,-458,-459,-463,-468,-470,-472,-474,-480,-486,-488,-489,-490,-491,-492,-492,-493,-489,-501,-518,-523,-528,-539,-553,-571,-575,-590,-593,-609,-623,-643,-653,-672,-681,-699,-716,-746,-782,-813,-842,-863,-910,-942,-970,-957,-979,-997,-1078,-1096,-1107,-1112,-1155,-1180,-1197,-1211,-1241,-1227,-1260,-1250,-1255,-1226,-1293,-1272,-1305,-1287,-1311,-1311
73.6729166666667,-183,-184,-183,-183,-183,-183,-182,-181,-182,-184,-185,-186,-184,-184,-187,-185,-184,-184,-186,-187,-186,-185,-185,-185,-185,-185,-185,-183,-182,-182,-184,-185,-189,-191,-194,-190,-189,-189,-188,-188,-188,-189,-189,-188,-186,-182,-185,-187,-186,-186,-186,-187,-188,-189,-190,-192,-194,-196,-195,-190,-191,-191,-191,-191,-198,-193,-195,-194,-194,-193,-193,-195,-199,-193,-195,-195,-198,-195,-198,-198,-198,-194,-191,-190,-195,-198,-201,-199,-200,-200,-202,-200,-196,-200,-197,-201,-201,-205,-206,-205,-208,-202,-201,-201,-199,-200,-200,-202,-204,-206,-207,-207,-208,-209,-209,-209,-209,-208,-208,-207,-206,-205,-204,-202,-201,-200,-200,-199,-199,-200,-200,-200,-201,-201,-201,-202,-202,-203,-205,-208,-210,-211,-211,-211,-211,-212,-212,-212,-210,-208,-207,-205,-203,-201,-200,-200,-202,-204,-205,-207,-208,-209,-210,-211,-212,-213,-214,-215,-216,-217,-218,-218,-218,-220,-222,-224,-226,-226,-226,-226,-227,-228,-228,-227,-227,-227,-227,-228,-228,-230,-234,-234,-233,-231,-229,-228,-231,-230,-230,-229,-229,-230,-230,-231,-231,-230,-230,-230,-231,-232,-232,-233,-234,-235,-236,-235,-235,-235,-235,-235,-236,-237,-237,-237,-236,-236,-237,-238,-238,-238,-236,-237,-236,-236,-237,-239,-238,-235,-237,-243,-239,-239,-240,-243,-240,-243,-241,-239,-239,-244,-248,-248,-246,-245,-245,-246,-246,-246,-245,-245,-247,-250,-252,-254,-256,-257,-256,-255,-255,-256,-257,-257,-258,-258,-257,-257,-259,-264,-264,-266,-262,-261,-262,-263,-263,-264,-263,-264,-265,-266,-265,-268,-269,-270,-268,-268,-269,-271,-272,-274,-270,-272,-273,-273,-276,-274,-273,-276,-276,-277,-278,-279,-278,-279,-280,-282,-282,-283,-286,-282,-288,-288,-288,-291,-292,-294,-291,-292,-294,-295,-296,-296,-297,-299,-300,-301,-301,-303,-302,-302,-302,-304,-305,-307,-308,-308,-310,-312,-317,-316,-312,-315,-315,-318,-319,-321,-324,-327,-328,-330,-332,-333,-335,-337,-340,-343,-341,-340,-341,-343,-344,-346,-348,-348,-352,-354,-361,-368,-373,-373,-372,-373,-372,-374,-379,-386,-392,-393,-396,-400,-398,-399,-400,-403,-408,-412,-419,-421,-422,-422,-420,-421,-423,-424,-424,-425,-430,-433,-437,-444,-450,-451,-455,-462,-465,-466,-473,-475,-478,-479,-488,-488,-489,-490,-492,-494,-494,-493,-492,-495,-513,-531,-542,-545,-550,-562,-577,-598,-607,-614,-619,-625,-639,-663,-676,-688,-697,-704,-713,-736,-771,-798,-828,-852,-898,-942,-959,-966,-1022,-1028,-1032,-1104,-1093,-1148,-1176,-1192,-1179,-1230,-1220,-1263,-1268,-1295,-1301,-1323,-1322,-1343,-1350,-1369,-1390,-1376
73.6770833333333,-184,-185,-184,-184,-184,-184,-183,-183,-184,-186,-187,-187,-186,-187,-188,-186,-183,-184,-183,-186,-189,-187,-186,-186,-187,-188,-187,-186,-185,-186,-188,-186,-193,-191,-191,-189,-188,-188,-188,-188,-187,-186,-185,-190,-189,-191,-191,-189,-186,-188,-189,-190,-190,-191,-192,-193,-196,-197,-197,-190,-191,-194,-195,-196,-194,-194,-194,-195,-194,-193,-191,-194,-194,-193,-193,-193,-194,-192,-195,-196,-196,-194,-195,-195,-195,-195,-198,-198,-200,-200,-201,-204,-202,-203,-201,-202,-199,-201,-203,-204,-206,-209,-208,-205,-202,-201,-202,-203,-204,-204,-207,-209,-208,-210,-211,-211,-211,-210,-210,-209,-208,-207,-205,-204,-203,-202,-201,-201,-200,-201,-201,-201,-202,-202,-203,-204,-206,-208,-211,-215,-216,-213,-214,-213,-213,-214,-215,-214,-212,-210,-209,-207,-205,-202,-201,-201,-203,-205,-207,-208,-209,-210,-211,-212,-213,-214,-215,-216,-217,-218,-219,-219,-220,-220,-222,-223,-225,-226,-226,-226,-227,-226,-226,-227,-227,-227,-228,-227,-227,-228,-232,-232,-230,-229,-227,-225,-230,-230,-229,-229,-229,-230,-231,-232,-232,-231,-231,-230,-231,-232,-233,-234,-234,-235,-236,-236,-236,-235,-235,-236,-236,-237,-238,-237,-236,-237,-238,-239,-238,-236,-239,-241,-242,-241,-236,-242,-244,-245,-245,-242,-244,-242,-247,-242,-246,-244,-245,-243,-242,-246,-249,-248,-246,-246,-246,-247,-248,-249,-249,-251,-252,-255,-254,-254,-255,-255,-255,-253,-253,-254,-256,-257,-258,-259,-259,-258,-259,-266,-263,-262,-261,-262,-264,-265,-266,-267,-267,-267,-267,-267,-266,-267,-268,-271,-271,-270,-272,-278,-283,-283,-281,-276,-272,-273,-275,-275,-278,-279,-278,-280,-285,-283,-280,-281,-282,-282,-283,-283,-283,-284,-288,-287,-287,-291,-293,-297,-292,-292,-295,-296,-297,-297,-298,-300,-301,-301,-302,-305,-304,-304,-304,-306,-308,-309,-311,-313,-311,-314,-314,-313,-320,-322,-321,-321,-322,-324,-326,-329,-331,-333,-336,-339,-341,-342,-343,-345,-347,-349,-351,-346,-348,-349,-351,-353,-359,-364,-373,-377,-367,-372,-375,-376,-379,-384,-386,-393,-400,-397,-397,-399,-398,-403,-405,-410,-415,-417,-425,-427,-427,-430,-428,-426,-429,-428,-431,-431,-437,-440,-449,-460,-471,-468,-468,-471,-472,-475,-480,-478,-482,-486,-487,-489,-490,-491,-492,-494,-501,-507,-513,-514,-535,-549,-556,-555,-563,-571,-581,-601,-605,-617,-626,-630,-643,-663,-672,-685,-702,-706,-719,-743,-773,-778,-840,-866,-921,-972,-1019,-1021,-1055,-1038,-1097,-1079,-1143,-1131,-1163,-1141,-1186,-1152,-1202,-1213,-1267,-1226,-1308,-1296,-1349,-1344,-1373,-1377,-1411,-1413
73.68125,-186,-186,-185,-185,-185,-185,-185,-185,-186,-187,-188,-188,-188,-188,-188,-186,-185,-184,-184,-186,-189,-188,-184,-186,-188,-190,-189,-188,-187,-187,-188,-189,-188,-188,-191,-190,-190,-190,-189,-189,-189,-189,-186,-191,-191,-191,-190,-190,-187,-191,-192,-193,-193,-195,-192,-193,-195,-196,-196,-195,-195,-195,-194,-193,-194,-193,-195,-191,-192,-193,-191,-193,-193,-193,-194,-195,-195,-199,-199,-197,-196,-194,-195,-195,-195,-195,-197,-198,-200,-200,-201,-203,-205,-204,-204,-204,-201,-200,-200,-204,-204,-206,-207,-209,-208,-203,-202,-203,-204,-204,-205,-205,-206,-210,-209,-209,-213,-211,-212,-211,-210,-209,-207,-206,-204,-203,-202,-202,-201,-201,-202,-202,-203,-204,-205,-207,-209,-212,-216,-220,-221,-214,-216,-214,-214,-215,-217,-216,-214,-213,-212,-210,-208,-205,-204,-204,-205,-207,-208,-210,-211,-212,-213,-213,-214,-215,-216,-217,-218,-219,-220,-221,-221,-221,-222,-223,-224,-225,-225,-225,-226,-225,-225,-226,-227,-227,-228,-227,-227,-224,-224,-228,-226,-226,-228,-225,-227,-228,-229,-229,-229,-230,-231,-232,-232,-232,-231,-232,-232,-233,-234,-234,-235,-236,-236,-236,-237,-237,-237,-237,-237,-237,-237,-237,-237,-238,-238,-238,-240,-239,-239,-239,-238,-243,-238,-240,-243,-240,-243,-244,-242,-242,-244,-244,-244,-252,-246,-246,-246,-247,-247,-247,-248,-249,-247,-248,-250,-248,-251,-252,-250,-253,-252,-251,-251,-253,-253,-253,-255,-254,-257,-259,-258,-260,-262,-261,-265,-262,-262,-265,-265,-266,-265,-265,-266,-267,-268,-267,-269,-271,-271,-271,-272,-273,-273,-271,-273,-275,-275,-274,-274,-275,-274,-275,-274,-275,-280,-281,-280,-281,-285,-284,-282,-285,-287,-287,-284,-288,-286,-287,-289,-290,-291,-291,-289,-293,-295,-293,-294,-296,-298,-298,-299,-301,-300,-303,-299,-301,-304,-306,-305,-308,-309,-310,-312,-316,-314,-319,-315,-321,-318,-323,-323,-326,-325,-328,-330,-332,-335,-337,-340,-343,-345,-347,-349,-350,-350,-351,-351,-353,-359,-356,-360,-364,-368,-376,-378,-372,-370,-374,-381,-383,-388,-394,-396,-402,-401,-400,-398,-399,-401,-408,-416,-422,-429,-428,-431,-429,-429,-429,-428,-430,-431,-433,-438,-441,-444,-452,-468,-470,-472,-474,-476,-478,-480,-481,-482,-488,-489,-491,-491,-493,-494,-493,-492,-508,-495,-526,-553,-549,-544,-561,-555,-567,-586,-571,-597,-606,-601,-637,-656,-656,-677,-682,-689,-719,-742,-736,-760,-767,-770,-800,-830,-859,-860,-952,-1003,-1000,-956,-1056,-1001,-1060,-1110,-1064,-1043,-1109,-1104,-1157,-1152,-1215,-1182,-1267,-1248,-1303,-1324,-1337,-1328,-1374,-1375,-1417
73.6854166666667,-187,-187,-186,-186,-186,-186,-187,-187,-188,-188,-189,-189,-189,-189,-189,-188,-186,-186,-185,-187,-188,-187,-185,-189,-194,-188,-189,-187,-189,-191,-189,-189,-189,-194,-191,-192,-192,-192,-191,-190,-190,-194,-191,-187,-184,-194,-194,-194,-194,-195,-193,-194,-194,-199,-193,-194,-195,-194,-195,-196,-195,-198,-197,-193,-193,-196,-194,-193,-193,-193,-193,-195,-193,-194,-197,-198,-198,-199,-197,-196,-198,-198,-198,-199,-197,-197,-200,-198,-198,-198,-200,-203,-205,-205,-205,-205,-204,-201,-200,-200,-203,-205,-205,-213,-215,-210,-207,-206,-207,-207,-209,-209,-208,-208,-208,-207,-214,-213,-214,-214,-212,-211,-209,-208,-206,-205,-204,-203,-203,-202,-203,-203,-204,-205,-206,-208,-211,-214,-217,-219,-216,-217,-214,-214,-214,-215,-216,-217,-216,-218,-216,-213,-211,-209,-208,-208,-209,-209,-210,-211,-212,-213,-214,-215,-215,-216,-217,-218,-218,-220,-222,-223,-225,-226,-226,-226,-225,-226,-226,-227,-227,-228,-229,-227,-227,-226,-226,-228,-227,-227,-228,-227,-229,-231,-227,-228,-227,-230,-229,-230,-231,-232,-232,-233,-233,-233,-232,-233,-233,-234,-235,-235,-236,-236,-237,-237,-238,-239,-239,-239,-239,-238,-238,-239,-240,-239,-241,-238,-242,-243,-244,-242,-244,-242,-244,-243,-246,-241,-247,-242,-244,-245,-245,-245,-245,-244,-249,-248,-248,-247,-251,-248,-250,-251,-254,-250,-255,-249,-251,-251,-249,-253,-255,-255,-255,-257,-257,-257,-257,-259,-259,-272,-265,-263,-263,-262,-262,-263,-261,-266,-265,-265,-266,-267,-268,-269,-271,-270,-271,-273,-274,-274,-274,-273,-274,-273,-275,-272,-276,-278,-276,-276,-278,-278,-279,-277,-282,-279,-280,-281,-283,-284,-288,-284,-287,-287,-289,-293,-291,-290,-292,-293,-293,-291,-293,-292,-293,-295,-297,-297,-299,-299,-299,-301,-301,-306,-305,-306,-310,-312,-311,-310,-311,-313,-313,-318,-319,-322,-321,-322,-326,-324,-329,-340,-333,-330,-336,-336,-336,-341,-344,-344,-345,-348,-350,-353,-354,-356,-358,-361,-366,-366,-370,-375,-377,-383,-391,-387,-383,-382,-392,-390,-393,-389,-394,-395,-398,-397,-402,-412,-411,-414,-422,-425,-428,-428,-429,-427,-430,-432,-433,-449,-446,-445,-455,-459,-462,-471,-473,-474,-476,-479,-481,-483,-484,-487,-490,-491,-495,-501,-507,-508,-524,-559,-538,-562,-574,-578,-592,-622,-584,-627,-594,-646,-619,-682,-630,-668,-641,-671,-681,-717,-694,-725,-709,-743,-774,-802,-798,-843,-805,-842,-863,-889,-890,-917,-915,-944,-962,-1000,-986,-1029,-1012,-1055,-1064,-1133,-1095,-1160,-1127,-1181,-1169,-1214,-1214,-1242,-1272,-1252,-1238,-1289,-1311,-1291
73.6895833333333,-187,-187,-187,-187,-188,-188,-188,-189,-189,-190,-190,-190,-190,-190,-189,-189,-188,-187,-187,-188,-189,-188,-188,-192,-193,-191,-189,-188,-188,-185,-190,-190,-192,-191,-193,-193,-192,-192,-192,-194,-199,-194,-191,-191,-193,-194,-196,-198,-193,-194,-192,-193,-194,-195,-194,-194,-189,-196,-190,-194,-197,-194,-189,-191,-193,-194,-195,-196,-195,-196,-196,-196,-196,-196,-198,-199,-199,-199,-198,-197,-199,-198,-199,-199,-196,-201,-202,-208,-197,-198,-198,-202,-211,-209,-208,-208,-206,-206,-212,-204,-205,-208,-208,-210,-205,-210,-212,-211,-209,-208,-209,-208,-210,-211,-211,-213,-213,-215,-215,-216,-215,-212,-211,-209,-208,-206,-205,-204,-204,-204,-204,-204,-205,-206,-207,-209,-211,-213,-215,-216,-215,-217,-216,-215,-220,-217,-218,-220,-220,-221,-219,-216,-214,-212,-212,-212,-212,-212,-213,-213,-214,-215,-215,-216,-217,-217,-218,-219,-220,-221,-223,-226,-228,-230,-230,-229,-228,-228,-228,-229,-230,-231,-231,-231,-231,-233,-233,-231,-232,-232,-232,-233,-233,-234,-232,-236,-234,-237,-230,-230,-233,-233,-233,-233,-233,-233,-233,-234,-234,-234,-235,-236,-237,-237,-237,-238,-240,-241,-241,-242,-241,-241,-241,-242,-243,-243,-245,-246,-240,-246,-246,-251,-248,-246,-246,-247,-249,-248,-245,-249,-248,-248,-251,-249,-246,-250,-245,-248,-252,-253,-247,-247,-249,-251,-251,-248,-253,-255,-257,-254,-251,-252,-256,-257,-258,-262,-263,-259,-260,-268,-265,-264,-263,-264,-264,-265,-265,-264,-263,-266,-265,-265,-267,-271,-272,-272,-273,-274,-274,-275,-274,-275,-275,-275,-276,-276,-277,-277,-278,-278,-278,-280,-279,-279,-281,-281,-282,-282,-281,-283,-284,-285,-289,-287,-288,-289,-291,-291,-292,-291,-291,-294,-296,-297,-298,-297,-295,-299,-301,-301,-301,-300,-302,-303,-303,-305,-308,-308,-308,-312,-314,-314,-315,-317,-317,-321,-323,-325,-327,-326,-326,-330,-331,-334,-339,-339,-341,-341,-342,-346,-344,-353,-348,-348,-351,-356,-361,-367,-371,-374,-376,-377,-379,-380,-382,-384,-391,-396,-397,-394,-396,-395,-392,-394,-404,-396,-412,-412,-415,-422,-427,-425,-427,-427,-427,-428,-433,-431,-438,-442,-444,-456,-466,-462,-477,-476,-477,-478,-479,-481,-483,-484,-486,-490,-493,-497,-504,-518,-526,-534,-520,-553,-558,-617,-579,-599,-623,-632,-663,-702,-685,-677,-724,-687,-751,-794,-780,-741,-804,-722,-796,-790,-758,-750,-767,-767,-781,-813,-831,-859,-879,-883,-899,-930,-935,-947,-989,-977,-1029,-1039,-1062,-1090,-1134,-1115,-1159,-1184,-1218,-1224,-1239,-1243,-1280,-1285,-1303,-1321,-1308,-1303,-1337,-1368,-1366,-1386
