72.79375,-59,-58,-57,-56,-56,-56,-57,-57,-57,-57,-57,-58,-58,-58,-58,-58,-58,-58,-57,-57,-57,-57,-57,-57,-57,-57,-57,-57,-57,-57,-57,-57,-58,-58,-58,-57,-57,-57,-57,-57,-57,-57,-57,-57,-57,-57,-57,-57,-57,-57,-56,-56,-56,-56,-57,-57,-57,-57,-56,-56,-56,-56,-56,-57,-57,-57,-57,-55,-56,-56,-57,-57,-56,-56,-56,-56,-57,-57,-57,-57,-57,-58,-58,-58,-58,-59,-59,-59,-59,-59,-59,-59,-59,-59,-59,-59,-59,-58,-58,-58,-58,-59,-59,-59,-59,-59,-59,-61,-60,-60,-59,-59,-59,-59,-60,-60,-60,-60,-60,-61,-61,-60,-60,-60,-60,-61,-60,-60,-60,-60,-61,-61,-61,-61,-61,-61,-61,-61,-62,-62,-62,-62,-62,-62,-62,-62,-62,-62,-61,-61,-61,-60,-60,-59,-59,-59,-59,-59,-60,-60,-61,-61,-61,-61,-61,-61,-61,-61,-61,-62,-62,-63,-64,-64,-64,-64,-64,-64,-64,-64,-64,-65,-64,-65,-66,-66,-66,-66,-66,-66,-66,-66,-65,-65,-65,-65,-65,-65,-65,-65,-65,-65,-65,-65,-66,-66,-66,-66,-66,-66,-67,-67,-67,-67,-67,-67,-67,-67,-67,-68,-68,-68,-68,-68,-69,-69,-69,-69,-70,-70,-70,-71,-71,-71,-71,-71,-71,-72,-72,-72,-71,-71,-71,-70,-71,-71,-72,-73,-73,-74,-74,-75,-75,-76,-76,-76,-76,-76,-76,-76,-76,-76,-76,-76,-76,-76,-76,-77,-77,-78,-77,-77,-80,-79,-79,-79,-80,-79,-78,-80,-80,-80,-81,-81,-82,-81,-80,-79,-81,-81,-81,-83,-80,-79,-78,-78,-79,-79,-81,-82,-85,-89,-89,-88,-84,-83,-82,-81,-81,-81,-83,-83,-85,-87,-91,-91,-101,-101,-100,-100,-98,-101,-105,-106,-106,-106,-109,-108,-113,-112,-111,-111,-112,-114,-116,-117,-116,-117,-122,-115,-117,-120,-120,-121,-121,-120,-121,-121,-122,-124,-125,-124,-128,-125,-129,-130,-132,-131,-134,-135,-137,-135,-138,-135,-137,-138,-140,-141,-142,-143,-144,-146,-145,-146,-147,-145,-149,-148,-148,-149,-154,-154,-154,-153,-153,-154,-158,-163,-164,-156,-154,-154,-154,-155,-155,-153,-154,-154,-154,-155,-156,-162,-158,-163,-165,-164,-164,-163,-164,-168,-170,-173,-174,-171,-169,-170,-168,-166,-177,-175,-172,-173,-172,-172,-172,-170,-171,-177,-176,-177,-178,-179,-178,-180,-179,-181,-182,-183,-182,-184,-185,-188,-187,-188,-187,-190,-191,-193,-195,-197,-199,-200,-201,-199,-199,-201,-203,-203,-203,-203,-203,-203,-204,-206,-207,-205,-206,-210,-210,-211,-211,-215,-218,-218,-216,-221,-219,-216,-218,-217
72.7979166666667,-59,-59,-58,-57,-56,-57,-57,-58,-58,-58,-58,-58,-58,-58,-58,-58,-58,-58,-58,-58,-58,-58,-58,-57,-57,-57,-57,-57,-57,-57,-57,-58,-58,-58,-58,-58,-57,-57,-57,-57,-57,-57,-57,-57,-57,-57,-57,-57,-57,-57,-57,-56,-56,-56,-57,-57,-58,-57,-57,-57,-57,-56,-57,-57,-58,-57,-58,-54,-55,-57,-58,-58,-57,-57,-56,-55,-57,-58,-58,-58,-58,-58,-58,-58,-58,-59,-60,-59,-59,-59,-59,-59,-59,-59,-59,-59,-58,-58,-58,-59,-59,-60,-59,-59,-59,-60,-60,-60,-59,-59,-59,-59,-60,-60,-60,-60,-60,-60,-61,-61,-61,-61,-61,-61,-61,-61,-61,-61,-61,-61,-61,-61,-61,-62,-62,-62,-62,-62,-62,-62,-62,-62,-62,-62,-62,-62,-61,-61,-61,-61,-60,-60,-60,-59,-59,-59,-59,-60,-60,-60,-61,-61,-61,-62,-62,-62,-62,-62,-62,-62,-62,-63,-63,-64,-64,-64,-65,-65,-64,-65,-64,-64,-64,-65,-66,-66,-67,-67,-67,-67,-67,-66,-66,-66,-65,-65,-65,-65,-65,-65,-66,-66,-66,-66,-66,-66,-66,-67,-67,-67,-67,-67,-67,-67,-67,-68,-68,-68,-68,-68,-68,-68,-69,-69,-69,-69,-70,-70,-70,-71,-71,-71,-72,-72,-72,-72,-72,-72,-72,-72,-72,-72,-72,-72,-72,-72,-73,-74,-74,-75,-75,-76,-76,-77,-77,-77,-77,-77,-77,-77,-77,-77,-77,-77,-77,-77,-77,-77,-78,-79,-78,-79,-80,-79,-79,-79,-79,-79,-77,-82,-82,-82,-82,-81,-83,-81,-82,-81,-81,-81,-80,-80,-80,-78,-76,-78,-78,-78,-80,-81,-84,-86,-87,-85,-84,-83,-85,-84,-83,-84,-88,-91,-90,-91,-93,-94,-99,-99,-98,-100,-98,-100,-106,-106,-110,-110,-109,-110,-111,-113,-112,-113,-114,-114,-116,-115,-116,-117,-116,-119,-117,-116,-120,-126,-125,-124,-127,-126,-128,-126,-131,-130,-132,-130,-132,-133,-134,-135,-137,-138,-139,-139,-140,-138,-139,-140,-142,-144,-145,-147,-147,-148,-148,-149,-150,-149,-151,-150,-150,-152,-156,-158,-157,-164,-160,-159,-158,-158,-159,-160,-161,-164,-155,-158,-157,-157,-163,-159,-160,-160,-165,-166,-165,-168,-168,-166,-167,-165,-166,-171,-172,-169,-169,-175,-176,-174,-173,-173,-174,-175,-173,-174,-177,-177,-177,-178,-178,-177,-180,-180,-180,-178,-181,-181,-181,-182,-183,-190,-199,-189,-193,-192,-191,-191,-192,-191,-193,-194,-195,-195,-198,-200,-202,-204,-205,-205,-202,-204,-205,-206,-206,-207,-207,-207,-207,-206,-215,-208,-211,-216,-210,-213,-213,-214,-215,-216,-215,-220,-219,-219
72.8020833333333,-58,-58,-58,-58,-58,-58,-58,-58,-58,-58,-59,-59,-59,-59,-59,-59,-59,-59,-58,-58,-58,-58,-58,-58,-58,-57,-57,-57,-57,-58,-58,-58,-58,-58,-58,-58,-57,-57,-57,-57,-57,-57,-57,-57,-57,-57,-57,-57,-57,-57,-56,-56,-56,-56,-56,-56,-57,-58,-58,-58,-58,-58,-58,-58,-58,-58,-57,-58,-58,-58,-59,-59,-58,-59,-59,-58,-58,-59,-59,-59,-59,-58,-59,-59,-58,-59,-59,-59,-59,-59,-59,-59,-59,-59,-58,-59,-59,-60,-60,-60,-60,-61,-60,-59,-59,-59,-59,-59,-60,-60,-60,-60,-60,-60,-61,-61,-61,-61,-61,-61,-61,-61,-61,-61,-61,-61,-61,-61,-61,-61,-61,-61,-62,-62,-62,-62,-62,-62,-62,-62,-62,-62,-62,-62,-61,-61,-61,-61,-60,-60,-60,-60,-60,-60,-60,-60,-60,-60,-60,-60,-61,-61,-61,-62,-62,-62,-62,-62,-62,-62,-62,-62,-63,-63,-63,-63,-64,-65,-64,-65,-65,-65,-64,-64,-64,-65,-67,-66,-67,-67,-67,-67,-66,-66,-66,-65,-65,-66,-66,-66,-66,-66,-66,-66,-66,-67,-67,-67,-67,-67,-68,-68,-68,-68,-68,-68,-68,-69,-69,-69,-69,-69,-69,-69,-70,-70,-70,-71,-71,-71,-72,-72,-72,-73,-73,-73,-73,-73,-73,-73,-73,-73,-73,-73,-73,-74,-74,-75,-75,-76,-76,-77,-77,-77,-77,-78,-78,-78,-78,-78,-78,-78,-79,-78,-79,-80,-81,-80,-80,-82,-79,-81,-82,-82,-82,-81,-81,-81,-83,-84,-84,-84,-84,-84,-83,-83,-82,-82,-81,-82,-80,-79,-80,-80,-79,-78,-76,-78,-80,-81,-81,-81,-81,-81,-82,-82,-85,-87,-86,-87,-90,-92,-97,-98,-99,-99,-100,-98,-98,-99,-101,-101,-105,-106,-108,-110,-109,-109,-110,-112,-113,-113,-113,-114,-116,-118,-119,-119,-121,-122,-119,-121,-127,-128,-125,-129,-131,-130,-131,-131,-133,-133,-135,-135,-136,-136,-136,-137,-139,-140,-141,-141,-142,-141,-141,-142,-144,-145,-146,-148,-149,-149,-151,-153,-151,-151,-153,-153,-153,-154,-156,-157,-158,-162,-159,-160,-159,-160,-159,-159,-160,-161,-162,-166,-160,-161,-159,-160,-159,-160,-155,-160,-160,-160,-164,-169,-169,-170,-165,-169,-167,-171,-172,-171,-171,-172,-173,-175,-175,-174,-176,-176,-178,-179,-179,-179,-180,-180,-180,-182,-182,-183,-184,-185,-186,-186,-187,-187,-188,-191,-192,-197,-197,-195,-194,-197,-195,-199,-195,-198,-196,-200,-201,-202,-205,-208,-209,-210,-207,-208,-209,-211,-212,-213,-214,-214,-214,-213,-220,-221,-220,-218,-219,-218,-218,-220,-220,-222,-221,-220
72.80625,-56,-57,-58,-58,-58,-59,-59,-58,-59,-59,-60,-60,-60,-60,-60,-59,-59,-59,-59,-59,-59,-58,-58,-58,-58,-58,-58,-58,-58,-58,-58,-58,-58,-58,-58,-58,-58,-57,-57,-57,-57,-57,-57,-57,-57,-57,-57,-57,-57,-57,-57,-56,-56,-56,-56,-56,-57,-58,-58,-58,-58,-59,-59,-59,-59,-59,-59,-60,-60,-58,-58,-58,-58,-59,-59,-59,-59,-59,-59,-59,-59,-59,-59,-59,-59,-59,-59,-59,-59,-59,-59,-59,-59,-59,-59,-60,-61,-61,-61,-60,-59,-59,-59,-60,-60,-60,-60,-60,-61,-60,-60,-60,-61,-61,-61,-61,-61,-61,-61,-61,-61,-61,-61,-61,-61,-61,-61,-61,-61,-61,-62,-62,-62,-62,-62,-62,-62,-62,-62,-62,-62,-61,-61,-61,-61,-61,-61,-60,-60,-60,-60,-60,-60,-60,-60,-60,-60,-60,-61,-61,-61,-61,-62,-62,-62,-62,-62,-62,-62,-62,-62,-62,-62,-62,-62,-62,-63,-64,-64,-64,-65,-65,-65,-65,-65,-65,-65,-65,-65,-66,-67,-67,-67,-66,-66,-66,-66,-66,-66,-66,-66,-66,-66,-67,-67,-67,-67,-68,-68,-68,-68,-68,-68,-69,-69,-69,-69,-69,-69,-70,-70,-70,-70,-70,-70,-71,-71,-71,-72,-72,-73,-73,-73,-73,-73,-73,-73,-74,-74,-74,-74,-74,-74,-75,-75,-75,-76,-76,-76,-77,-77,-77,-78,-78,-78,-78,-79,-79,-79,-79,-79,-79,-80,-80,-80,-82,-83,-83,-83,-84,-84,-84,-85,-85,-85,-85,-84,-83,-83,-83,-85,-85,-85,-84,-85,-83,-83,-82,-82,-84,-82,-81,-81,-80,-80,-80,-78,-80,-82,-82,-81,-80,-80,-81,-81,-82,-82,-85,-88,-91,-97,-96,-95,-97,-98,-95,-94,-93,-94,-96,-104,-103,-103,-104,-106,-110,-112,-111,-114,-117,-116,-116,-117,-120,-121,-121,-120,-124,-125,-126,-127,-131,-132,-131,-126,-124,-128,-132,-133,-134,-136,-137,-139,-139,-139,-138,-138,-139,-140,-141,-143,-144,-145,-144,-143,-144,-146,-147,-148,-151,-152,-151,-151,-155,-153,-152,-154,-155,-156,-155,-155,-155,-156,-158,-156,-157,-162,-159,-161,-163,-162,-162,-164,-165,-165,-167,-160,-160,-161,-160,-159,-167,-170,-168,-166,-167,-167,-170,-168,-170,-172,-170,-173,-173,-179,-175,-177,-177,-177,-177,-186,-179,-188,-179,-183,-182,-186,-191,-195,-189,-189,-189,-195,-188,-191,-192,-195,-195,-195,-192,-192,-194,-195,-196,-197,-198,-198,-198,-199,-210,-210,-210,-210,-210,-210,-209,-209,-210,-211,-212,-210,-213,-216,-217,-218,-219,-220,-219,-219,-218,-219,-223,-225,-224,-222,-225,-225,-221,-220,-221
72.8104166666667,-56,-56,-57,-57,-58,-58,-59,-58,-59,-60,-60,-61,-61,-61,-61,-60,-60,-59,-59,-59,-59,-59,-58,-58,-58,-58,-58,-58,-58,-58,-58,-58,-58,-58,-58,-58,-58,-58,-58,-57,-57,-57,-57,-57,-57,-57,-57,-57,-57,-57,-57,-57,-56,-56,-57,-57,-58,-58,-58,-58,-59,-59,-59,-59,-59,-59,-59,-60,-60,-59,-59,-59,-59,-59,-59,-59,-58,-58,-58,-59,-58,-58,-58,-58,-58,-58,-59,-59,-59,-59,-59,-59,-60,-59,-59,-60,-60,-60,-59,-60,-60,-60,-61,-61,-61,-61,-61,-61,-61,-61,-61,-61,-61,-61,-61,-61,-61,-61,-61,-61,-62,-62,-62,-62,-62,-62,-62,-62,-62,-62,-62,-62,-63,-62,-62,-62,-62,-61,-61,-61,-61,-61,-61,-61,-61,-61,-61,-60,-60,-60,-60,-60,-60,-60,-60,-60,-61,-61,-61,-61,-61,-62,-62,-62,-62,-62,-62,-62,-62,-62,-62,-62,-62,-62,-62,-62,-62,-62,-63,-63,-63,-64,-65,-66,-66,-65,-65,-65,-65,-65,-67,-67,-66,-66,-65,-65,-66,-66,-67,-67,-67,-67,-67,-67,-67,-68,-68,-68,-69,-69,-69,-69,-69,-69,-69,-70,-70,-70,-70,-70,-71,-71,-71,-71,-71,-72,-72,-72,-73,-73,-73,-74,-74,-74,-74,-74,-74,-74,-74,-74,-75,-75,-75,-76,-76,-76,-77,-77,-77,-78,-78,-78,-78,-79,-79,-79,-80,-80,-80,-80,-80,-81,-81,-81,-82,-83,-84,-84,-83,-84,-83,-84,-84,-85,-84,-84,-86,-87,-86,-86,-86,-87,-89,-87,-85,-84,-81,-82,-80,-84,-87,-86,-86,-85,-84,-84,-86,-86,-87,-88,-83,-84,-83,-83,-83,-83,-82,-84,-88,-92,-96,-95,-94,-94,-93,-89,-86,-87,-87,-89,-99,-100,-103,-105,-107,-109,-113,-115,-117,-112,-119,-116,-122,-124,-124,-131,-124,-127,-128,-128,-130,-133,-135,-135,-131,-129,-132,-134,-136,-137,-139,-141,-141,-142,-142,-141,-140,-142,-143,-144,-145,-146,-148,-148,-146,-147,-149,-150,-148,-149,-152,-154,-155,-154,-154,-155,-156,-157,-157,-155,-154,-155,-155,-159,-158,-160,-161,-162,-166,-166,-166,-165,-163,-163,-166,-168,-169,-169,-163,-169,-165,-166,-166,-165,-166,-169,-171,-171,-170,-175,-175,-176,-175,-178,-176,-178,-179,-180,-179,-181,-181,-183,-182,-182,-184,-186,-185,-187,-188,-188,-188,-190,-187,-192,-193,-195,-197,-197,-201,-200,-198,-198,-198,-197,-197,-200,-204,-205,-206,-207,-209,-211,-212,-212,-211,-212,-213,-214,-214,-215,-213,-216,-217,-216,-218,-220,-221,-222,-222,-223,-223,-224,-225,-224,-228,-228,-229,-228,-228,-228
72.8145833333333,-57,-57,-57,-57,-57,-58,-58,-58,-60,-60,-60,-61,-62,-62,-61,-60,-60,-60,-59,-60,-59,-59,-59,-59,-58,-58,-58,-58,-58,-58,-58,-58,-58,-58,-58,-58,-58,-58,-58,-58,-58,-58,-58,-57,-57,-57,-57,-57,-57,-57,-57,-57,-57,-57,-57,-58,-58,-59,-58,-59,-59,-59,-59,-59,-59,-58,-59,-59,-59,-58,-58,-59,-59,-59,-59,-59,-59,-58,-58,-57,-57,-57,-56,-56,-56,-57,-58,-59,-59,-59,-59,-59,-60,-59,-59,-59,-59,-59,-60,-60,-60,-60,-61,-61,-61,-61,-61,-61,-61,-61,-61,-61,-61,-61,-61,-62,-62,-62,-62,-62,-62,-62,-62,-62,-62,-62,-62,-62,-62,-62,-62,-62,-62,-62,-62,-61,-61,-61,-60,-60,-60,-60,-60,-61,-61,-61,-61,-61,-60,-60,-60,-60,-61,-61,-61,-61,-61,-61,-61,-62,-62,-62,-62,-62,-62,-63,-63,-63,-63,-63,-63,-62,-62,-62,-62,-62,-62,-62,-62,-62,-62,-62,-63,-64,-65,-66,-66,-65,-65,-65,-65,-65,-66,-65,-65,-65,-66,-67,-67,-68,-68,-67,-67,-67,-68,-68,-69,-69,-69,-69,-69,-69,-70,-70,-70,-70,-71,-71,-71,-71,-72,-72,-72,-72,-73,-73,-73,-73,-74,-74,-74,-74,-74,-74,-74,-74,-75,-75,-75,-75,-76,-76,-76,-77,-77,-77,-77,-78,-78,-79,-79,-79,-79,-80,-80,-80,-81,-81,-81,-82,-82,-82,-82,-83,-84,-85,-85,-86,-85,-86,-86,-86,-87,-87,-87,-88,-89,-90,-90,-90,-88,-90,-91,-91,-92,-86,-87,-90,-89,-92,-93,-92,-90,-85,-85,-87,-85,-87,-88,-90,-90,-92,-90,-87,-87,-86,-85,-86,-87,-90,-92,-92,-91,-90,-88,-85,-83,-84,-86,-89,-92,-96,-99,-100,-107,-111,-116,-118,-121,-122,-126,-127,-132,-130,-130,-134,-130,-132,-132,-132,-134,-136,-136,-135,-134,-136,-137,-138,-138,-140,-140,-143,-143,-142,-143,-143,-144,-147,-151,-148,-146,-148,-149,-150,-150,-152,-153,-153,-154,-154,-153,-155,-157,-161,-158,-158,-157,-157,-157,-157,-157,-158,-157,-159,-160,-162,-160,-158,-158,-162,-162,-167,-167,-169,-169,-168,-169,-170,-172,-174,-171,-167,-168,-171,-170,-173,-172,-180,-174,-176,-177,-179,-178,-178,-178,-180,-182,-184,-184,-184,-185,-187,-187,-188,-192,-193,-192,-193,-196,-197,-198,-198,-200,-204,-201,-198,-199,-197,-196,-196,-197,-197,-200,-202,-209,-217,-199,-203,-205,-208,-210,-212,-214,-216,-217,-218,-218,-218,-219,-218,-217,-215,-217,-220,-219,-216,-219,-221,-223,-225,-225,-226,-226,-226,-226,-230,-230,-233,-233,-234
72.81875,-57,-57,-57,-57,-57,-58,-56,-57,-58,-59,-59,-60,-62,-61,-61,-61,-60,-60,-60,-60,-60,-59,-59,-59,-58,-58,-58,-58,-58,-58,-58,-58,-58,-58,-58,-58,-58,-58,-58,-58,-58,-58,-58,-58,-58,-57,-57,-57,-57,-57,-57,-57,-57,-57,-58,-58,-58,-59,-58,-58,-58,-58,-58,-58,-59,-58,-60,-59,-58,-58,-58,-58,-59,-59,-59,-59,-59,-59,-58,-57,-58,-57,-57,-56,-57,-58,-58,-60,-60,-60,-59,-59,-60,-60,-60,-60,-60,-60,-59,-60,-60,-60,-60,-61,-61,-61,-61,-61,-61,-61,-61,-62,-62,-62,-62,-62,-62,-62,-62,-62,-62,-62,-63,-63,-63,-63,-63,-63,-63,-62,-62,-62,-62,-62,-61,-61,-60,-60,-60,-60,-60,-60,-60,-61,-61,-61,-61,-61,-61,-61,-61,-61,-61,-61,-61,-61,-61,-62,-62,-62,-62,-62,-62,-63,-63,-63,-63,-63,-63,-63,-63,-63,-63,-63,-62,-62,-62,-62,-62,-62,-62,-63,-62,-62,-62,-65,-65,-66,-66,-65,-65,-65,-65,-65,-66,-66,-66,-67,-68,-69,-69,-68,-68,-68,-68,-68,-69,-70,-70,-70,-70,-70,-70,-70,-71,-71,-72,-72,-72,-73,-73,-73,-74,-74,-74,-75,-75,-75,-75,-75,-75,-75,-75,-75,-75,-75,-75,-76,-76,-76,-77,-77,-77,-78,-78,-78,-78,-78,-79,-79,-80,-80,-81,-81,-81,-81,-82,-82,-83,-83,-83,-83,-84,-84,-85,-86,-87,-87,-88,-88,-89,-89,-90,-90,-90,-91,-92,-93,-93,-93,-92,-93,-93,-94,-93,-94,-96,-100,-99,-99,-99,-98,-95,-89,-90,-90,-93,-95,-94,-93,-94,-93,-92,-91,-91,-90,-88,-87,-87,-88,-88,-88,-89,-89,-87,-84,-82,-85,-91,-89,-91,-91,-97,-102,-107,-110,-120,-126,-123,-127,-129,-130,-131,-132,-134,-136,-137,-137,-135,-135,-135,-137,-139,-138,-137,-139,-141,-141,-141,-144,-145,-143,-141,-145,-144,-144,-145,-147,-150,-149,-145,-148,-151,-147,-149,-153,-156,-155,-154,-153,-155,-155,-157,-161,-160,-160,-159,-159,-159,-159,-160,-160,-160,-161,-162,-163,-160,-158,-157,-158,-159,-162,-163,-169,-171,-172,-171,-171,-171,-174,-175,-176,-181,-180,-174,-172,-175,-177,-179,-183,-181,-182,-187,-184,-185,-186,-187,-190,-189,-187,-191,-196,-195,-195,-198,-201,-201,-198,-199,-199,-201,-198,-200,-198,-194,-194,-196,-198,-196,-197,-197,-198,-202,-204,-207,-211,-199,-202,-204,-208,-211,-213,-215,-216,-218,-220,-221,-221,-222,-223,-221,-222,-225,-224,-217,-219,-220,-223,-223,-225,-227,-229,-230,-230,-232,-231,-231,-232,-233,-231
72.8229166666667,-56,-56,-57,-57,-57,-57,-57,-57,-57,-57,-58,-59,-60,-59,-60,-61,-61,-61,-62,-61,-60,-60,-59,-59,-58,-58,-58,-58,-58,-58,-58,-58,-58,-58,-58,-58,-58,-58,-58,-58,-58,-58,-58,-58,-58,-58,-57,-57,-57,-57,-57,-57,-57,-57,-58,-58,-58,-58,-58,-58,-58,-59,-59,-59,-59,-59,-60,-59,-59,-59,-59,-59,-59,-59,-59,-59,-59,-59,-59,-59,-59,-59,-59,-59,-59,-60,-60,-59,-59,-59,-60,-59,-60,-61,-60,-59,-59,-58,-58,-59,-59,-60,-60,-60,-60,-61,-61,-61,-61,-62,-62,-62,-62,-62,-62,-62,-62,-62,-62,-62,-62,-62,-63,-63,-63,-63,-63,-62,-62,-61,-61,-61,-61,-61,-61,-60,-60,-60,-60,-60,-60,-60,-60,-61,-61,-61,-61,-61,-61,-61,-61,-61,-61,-61,-62,-62,-62,-62,-62,-62,-62,-63,-63,-63,-63,-63,-63,-63,-63,-63,-63,-63,-63,-63,-63,-63,-62,-62,-62,-62,-63,-63,-62,-62,-63,-64,-64,-65,-66,-66,-66,-66,-67,-67,-67,-68,-68,-69,-70,-71,-70,-69,-68,-68,-68,-69,-70,-71,-71,-71,-71,-71,-71,-71,-71,-72,-73,-73,-74,-74,-74,-75,-75,-75,-76,-76,-76,-76,-76,-76,-76,-76,-76,-76,-76,-76,-76,-77,-77,-77,-78,-78,-78,-78,-78,-78,-78,-79,-80,-80,-81,-82,-82,-82,-82,-82,-83,-84,-84,-84,-84,-84,-85,-86,-87,-88,-89,-89,-90,-91,-91,-92,-92,-93,-93,-94,-95,-95,-96,-96,-96,-97,-98,-96,-96,-97,-97,-98,-101,-103,-103,-104,-104,-103,-103,-101,-102,-101,-98,-98,-96,-95,-94,-94,-93,-92,-89,-89,-89,-90,-89,-89,-88,-89,-89,-89,-86,-92,-91,-88,-94,-93,-100,-102,-109,-112,-118,-124,-127,-129,-132,-132,-134,-135,-137,-140,-141,-143,-141,-140,-140,-142,-145,-145,-147,-146,-151,-153,-153,-152,-149,-147,-146,-149,-148,-148,-153,-154,-154,-153,-152,-155,-155,-152,-154,-157,-158,-157,-155,-157,-154,-156,-156,-159,-161,-162,-161,-161,-161,-162,-162,-163,-163,-163,-164,-164,-162,-160,-159,-160,-160,-162,-165,-165,-169,-172,-173,-174,-175,-179,-179,-181,-182,-185,-188,-178,-177,-176,-182,-187,-187,-189,-189,-193,-196,-193,-200,-194,-197,-194,-195,-203,-202,-200,-201,-201,-199,-200,-201,-197,-198,-199,-200,-199,-197,-197,-199,-200,-200,-200,-201,-202,-204,-204,-204,-204,-202,-204,-206,-209,-212,-214,-213,-213,-215,-219,-219,-221,-222,-223,-224,-225,-226,-226,-226,-229,-229,-224,-226,-227,-226,-231,-232,-233,-234,-235,-234,-236,-237,-236
72.8270833333333,-57,-56,-56,-57,-57,-57,-57,-57,-58,-57,-57,-57,-58,-59,-60,-60,-60,-62,-63,-63,-62,-60,-59,-58,-58,-58,-58,-58,-58,-58,-58,-58,-58,-58,-58,-58,-58,-58,-58,-58,-58,-58,-58,-58,-58,-58,-58,-57,-57,-57,-57,-57,-58,-58,-58,-58,-58,-58,-58,-58,-59,-60,-60,-60,-60,-59,-59,-59,-59,-59,-59,-59,-59,-59,-60,-60,-60,-60,-60,-60,-60,-60,-61,-59,-59,-59,-59,-59,-59,-59,-60,-60,-60,-59,-59,-59,-59,-58,-58,-59,-59,-60,-60,-60,-60,-60,-61,-61,-62,-62,-62,-62,-62,-62,-62,-63,-63,-63,-63,-62,-62,-62,-62,-62,-63,-63,-62,-61,-61,-60,-61,-61,-61,-61,-60,-60,-60,-60,-60,-60,-60,-60,-61,-61,-61,-61,-61,-61,-62,-62,-62,-62,-62,-62,-62,-62,-62,-62,-62,-63,-63,-63,-63,-63,-63,-63,-64,-64,-64,-64,-64,-64,-64,-64,-63,-63,-63,-63,-63,-63,-63,-63,-63,-63,-63,-63,-62,-63,-64,-66,-67,-70,-67,-68,-68,-68,-69,-71,-72,-72,-72,-70,-69,-69,-70,-70,-71,-72,-72,-72,-72,-72,-72,-72,-72,-73,-73,-74,-74,-75,-75,-75,-76,-76,-77,-77,-77,-77,-77,-77,-77,-77,-77,-77,-77,-77,-77,-78,-78,-78,-79,-79,-79,-79,-79,-79,-79,-80,-81,-82,-82,-83,-83,-83,-83,-83,-84,-85,-85,-85,-85,-85,-86,-87,-89,-90,-91,-92,-92,-93,-94,-95,-95,-96,-96,-97,-98,-98,-99,-100,-100,-101,-102,-101,-101,-99,-100,-100,-101,-104,-104,-105,-105,-103,-104,-105,-103,-107,-103,-99,-100,-96,-94,-94,-93,-92,-92,-93,-93,-94,-92,-94,-91,-90,-91,-91,-93,-92,-93,-97,-97,-104,-125,-119,-125,-123,-132,-136,-141,-140,-140,-138,-135,-140,-141,-145,-143,-144,-146,-149,-147,-152,-148,-149,-149,-149,-149,-153,-153,-154,-153,-151,-150,-150,-149,-151,-158,-158,-155,-158,-158,-160,-158,-158,-158,-162,-160,-156,-155,-155,-159,-157,-160,-161,-162,-163,-163,-164,-164,-164,-165,-165,-166,-166,-166,-166,-165,-164,-163,-163,-164,-165,-166,-167,-171,-174,-177,-181,-182,-183,-187,-187,-186,-189,-188,-188,-189,-186,-190,-191,-192,-193,-194,-197,-197,-195,-198,-200,-201,-204,-198,-196,-195,-195,-194,-193,-196,-202,-201,-199,-198,-199,-201,-202,-202,-202,-203,-204,-204,-205,-207,-208,-208,-207,-205,-205,-206,-208,-211,-213,-214,-217,-215,-215,-215,-218,-220,-223,-222,-223,-226,-227,-228,-229,-230,-230,-229,-229,-231,-231,-230,-232,-232,-233,-235,-235,-236,-237,-237,-239
72.83125,-56,-56,-57,-57,-57,-57,-57,-57,-57,-57,-58,-58,-58,-58,-59,-60,-60,-63,-65,-65,-63,-61,-59,-58,-58,-58,-58,-58,-58,-58,-58,-58,-58,-58,-58,-58,-58,-58,-58,-58,-58,-58,-58,-58,-58,-58,-58,-57,-57,-57,-57,-58,-58,-58,-58,-58,-58,-58,-58,-59,-59,-60,-60,-60,-60,-60,-59,-59,-59,-60,-60,-59,-59,-59,-60,-60,-60,-60,-60,-60,-60,-59,-59,-59,-59,-60,-59,-59,-59,-59,-59,-60,-59,-59,-59,-59,-60,-59,-60,-59,-59,-59,-60,-59,-59,-59,-60,-61,-62,-62,-62,-62,-63,-63,-63,-63,-63,-63,-63,-62,-61,-61,-61,-61,-62,-62,-61,-61,-60,-60,-60,-60,-61,-61,-60,-60,-60,-60,-60,-60,-61,-61,-61,-61,-61,-62,-62,-62,-62,-62,-62,-62,-62,-62,-62,-63,-63,-63,-63,-63,-63,-63,-63,-64,-64,-64,-64,-64,-64,-64,-64,-64,-64,-64,-64,-64,-64,-64,-64,-64,-64,-64,-64,-64,-64,-64,-63,-64,-64,-64,-65,-67,-72,-68,-71,-71,-72,-72,-72,-74,-74,-72,-71,-72,-72,-73,-73,-73,-73,-73,-73,-73,-73,-72,-73,-73,-74,-74,-75,-75,-76,-76,-76,-77,-77,-77,-78,-78,-78,-78,-78,-78,-78,-78,-79,-79,-79,-79,-79,-79,-80,-80,-81,-81,-80,-80,-80,-81,-82,-83,-84,-85,-84,-84,-84,-84,-85,-87,-87,-87,-86,-86,-87,-89,-91,-92,-93,-94,-95,-96,-97,-97,-98,-99,-99,-100,-100,-101,-102,-103,-104,-105,-106,-106,-105,-104,-105,-104,-103,-104,-105,-107,-105,-106,-108,-106,-108,-111,-109,-109,-113,-115,-117,-104,-101,-104,-107,-108,-104,-108,-111,-96,-104,-99,-103,-104,-106,-116,-119,-124,-128,-130,-139,-140,-137,-146,-144,-145,-147,-143,-141,-140,-138,-140,-142,-144,-144,-144,-146,-147,-148,-148,-151,-150,-150,-148,-148,-151,-155,-156,-155,-154,-153,-152,-151,-152,-153,-154,-158,-159,-160,-158,-159,-163,-161,-165,-161,-158,-159,-158,-160,-161,-162,-163,-164,-165,-166,-166,-167,-167,-168,-168,-169,-169,-169,-169,-168,-168,-167,-167,-168,-169,-170,-171,-174,-177,-181,-185,-187,-190,-185,-186,-187,-189,-188,-188,-189,-191,-193,-195,-195,-196,-198,-199,-199,-199,-203,-204,-205,-205,-199,-197,-196,-195,-194,-196,-200,-204,-204,-202,-201,-201,-203,-206,-208,-209,-209,-209,-209,-210,-212,-214,-213,-210,-209,-209,-213,-214,-218,-218,-217,-219,-222,-225,-224,-223,-225,-225,-224,-222,-224,-227,-229,-230,-231,-233,-232,-234,-235,-235,-235,-235,-234,-235,-236,-236,-235,-239,-241,-243
72.8354166666667,-55,-55,-56,-57,-57,-57,-57,-57,-57,-57,-57,-57,-58,-57,-58,-59,-59,-64,-64,-64,-62,-61,-59,-59,-58,-57,-57,-58,-58,-58,-58,-58,-58,-58,-58,-58,-58,-58,-58,-58,-58,-58,-58,-58,-58,-58,-58,-58,-57,-57,-57,-58,-58,-58,-58,-58,-58,-58,-58,-59,-59,-60,-60,-60,-60,-60,-60,-60,-60,-60,-60,-59,-60,-60,-60,-60,-60,-59,-59,-59,-59,-59,-60,-61,-60,-60,-59,-59,-59,-59,-59,-59,-59,-59,-58,-59,-58,-58,-59,-60,-57,-59,-60,-60,-59,-59,-60,-62,-62,-62,-62,-63,-63,-63,-63,-63,-63,-63,-62,-62,-61,-60,-60,-61,-61,-61,-61,-60,-60,-60,-60,-60,-60,-61,-61,-60,-60,-60,-61,-61,-61,-61,-61,-62,-62,-62,-62,-62,-62,-62,-63,-63,-63,-63,-63,-63,-63,-63,-63,-63,-63,-64,-64,-64,-64,-64,-64,-65,-65,-65,-65,-65,-65,-65,-65,-65,-65,-65,-65,-65,-65,-66,-66,-66,-66,-66,-66,-66,-68,-69,-69,-69,-69,-70,-70,-70,-74,-74,-74,-73,-74,-73,-73,-73,-74,-74,-74,-75,-75,-74,-74,-73,-73,-73,-73,-73,-74,-74,-75,-75,-76,-76,-77,-77,-77,-78,-78,-78,-78,-78,-78,-78,-78,-78,-79,-80,-80,-79,-80,-81,-80,-81,-82,-82,-82,-81,-83,-87,-86,-86,-85,-86,-86,-86,-86,-86,-87,-87,-88,-88,-88,-88,-88,-91,-93,-95,-96,-97,-98,-99,-99,-100,-101,-101,-102,-102,-103,-104,-105,-107,-108,-109,-109,-109,-109,-109,-109,-107,-107,-107,-108,-109,-111,-114,-111,-111,-109,-114,-114,-116,-119,-118,-120,-121,-123,-122,-123,-127,-130,-125,-129,-127,-131,-116,-119,-122,-123,-129,-133,-135,-136,-138,-146,-145,-152,-152,-151,-147,-148,-147,-150,-148,-145,-144,-144,-145,-146,-149,-149,-148,-147,-150,-150,-152,-153,-154,-154,-154,-156,-156,-157,-158,-156,-156,-155,-154,-154,-156,-155,-156,-159,-162,-166,-168,-165,-165,-164,-164,-165,-160,-161,-162,-162,-164,-167,-168,-169,-169,-170,-170,-171,-171,-172,-172,-172,-172,-172,-172,-172,-172,-172,-173,-174,-176,-178,-181,-184,-187,-190,-190,-187,-187,-189,-191,-191,-192,-192,-193,-193,-196,-197,-198,-199,-200,-201,-202,-205,-207,-206,-205,-202,-200,-199,-198,-198,-200,-204,-209,-210,-209,-206,-204,-206,-210,-215,-213,-214,-213,-213,-216,-216,-219,-219,-215,-215,-215,-219,-223,-223,-224,-226,-225,-223,-223,-223,-222,-220,-223,-225,-224,-226,-228,-230,-231,-231,-232,-234,-236,-237,-238,-238,-238,-239,-240,-242,-239,-239,-239,-240,-245
72.8395833333333,-54,-54,-55,-56,-57,-56,-57,-57,-57,-57,-57,-57,-57,-57,-58,-59,-60,-58,-59,-60,-59,-59,-58,-59,-58,-57,-57,-57,-57,-57,-57,-57,-58,-58,-58,-58,-58,-58,-58,-58,-58,-58,-58,-58,-58,-58,-58,-58,-58,-58,-58,-58,-58,-58,-58,-58,-58,-58,-59,-59,-59,-60,-60,-60,-60,-60,-60,-61,-60,-60,-60,-59,-59,-60,-59,-59,-59,-59,-59,-59,-59,-59,-60,-60,-60,-59,-59,-59,-59,-59,-59,-59,-59,-59,-59,-59,-58,-58,-59,-59,-58,-59,-60,-60,-59,-60,-61,-62,-62,-63,-63,-63,-63,-63,-63,-63,-62,-62,-62,-61,-61,-60,-60,-60,-60,-61,-60,-60,-60,-60,-60,-60,-61,-61,-61,-61,-61,-61,-61,-61,-61,-62,-62,-62,-62,-62,-63,-63,-63,-63,-63,-63,-63,-63,-63,-63,-63,-63,-63,-64,-64,-64,-64,-64,-64,-65,-65,-65,-65,-65,-66,-66,-66,-66,-66,-66,-66,-66,-66,-66,-66,-67,-67,-67,-67,-68,-68,-69,-69,-71,-70,-70,-70,-71,-70,-70,-70,-71,-74,-73,-73,-73,-73,-73,-74,-75,-75,-76,-76,-75,-75,-74,-73,-73,-73,-73,-74,-74,-75,-75,-76,-76,-77,-77,-77,-77,-78,-78,-78,-78,-78,-78,-78,-78,-80,-80,-81,-80,-81,-83,-81,-81,-83,-84,-84,-84,-84,-92,-89,-87,-87,-87,-88,-88,-88,-88,-89,-89,-90,-90,-91,-91,-92,-94,-97,-98,-99,-99,-100,-101,-101,-102,-103,-104,-105,-105,-106,-107,-108,-110,-111,-112,-112,-112,-111,-111,-110,-109,-110,-114,-112,-114,-115,-114,-115,-121,-113,-121,-117,-120,-121,-123,-126,-129,-129,-130,-131,-137,-137,-137,-143,-144,-145,-147,-152,-143,-147,-147,-140,-151,-155,-160,-156,-152,-153,-149,-153,-155,-154,-152,-150,-149,-150,-151,-149,-149,-150,-155,-153,-149,-149,-148,-152,-153,-154,-154,-156,-157,-156,-158,-159,-163,-162,-162,-160,-158,-158,-159,-159,-156,-161,-161,-160,-162,-167,-170,-170,-168,-167,-170,-169,-168,-166,-169,-170,-171,-171,-172,-173,-173,-174,-175,-175,-176,-176,-176,-176,-176,-176,-176,-177,-178,-179,-180,-182,-184,-187,-189,-191,-191,-190,-190,-191,-192,-193,-194,-195,-196,-196,-197,-197,-198,-201,-202,-202,-204,-206,-208,-207,-207,-205,-204,-203,-202,-202,-206,-211,-217,-220,-218,-211,-209,-208,-214,-221,-217,-218,-218,-217,-221,-218,-220,-221,-222,-223,-224,-223,-222,-223,-224,-223,-221,-222,-223,-225,-225,-224,-226,-226,-226,-229,-232,-233,-233,-232,-235,-235,-238,-240,-241,-242,-242,-243,-244,-244,-244,-244,-246,-248,-247
72.84375,-53,-53,-53,-55,-57,-56,-56,-57,-57,-58,-57,-57,-57,-57,-57,-57,-58,-58,-57,-57,-57,-59,-57,-57,-57,-58,-57,-57,-58,-58,-58,-58,-58,-58,-58,-58,-58,-58,-58,-58,-58,-58,-58,-58,-58,-58,-58,-58,-58,-58,-58,-58,-58,-58,-58,-58,-58,-58,-59,-59,-59,-60,-60,-60,-61,-61,-60,-60,-61,-60,-61,-59,-59,-59,-59,-59,-60,-60,-60,-59,-60,-59,-60,-60,-59,-59,-59,-59,-59,-59,-59,-59,-59,-60,-60,-60,-60,-59,-59,-59,-59,-59,-59,-58,-58,-60,-60,-62,-63,-63,-64,-63,-63,-62,-62,-62,-62,-62,-61,-61,-61,-60,-60,-60,-60,-60,-60,-60,-60,-60,-60,-60,-61,-61,-61,-61,-61,-61,-61,-62,-62,-62,-62,-62,-63,-63,-63,-63,-63,-63,-63,-64,-64,-64,-64,-64,-64,-64,-64,-64,-64,-64,-65,-65,-65,-65,-65,-65,-66,-66,-66,-66,-67,-67,-67,-67,-67,-67,-67,-67,-68,-68,-69,-69,-69,-69,-70,-70,-71,-71,-71,-71,-71,-71,-70,-70,-70,-70,-71,-70,-74,-73,-73,-73,-73,-74,-75,-76,-76,-77,-76,-74,-72,-72,-72,-73,-74,-74,-75,-76,-76,-76,-76,-76,-77,-77,-77,-78,-78,-78,-78,-78,-78,-79,-80,-81,-81,-81,-82,-81,-82,-83,-84,-84,-85,-87,-90,-88,-88,-89,-89,-89,-89,-90,-90,-90,-91,-91,-92,-92,-93,-94,-95,-97,-99,-99,-98,-101,-102,-103,-103,-104,-106,-107,-107,-107,-108,-109,-110,-112,-113,-114,-115,-113,-112,-112,-113,-113,-114,-115,-123,-117,-117,-118,-119,-122,-123,-125,-126,-127,-127,-128,-129,-129,-132,-137,-139,-139,-138,-151,-143,-144,-146,-147,-148,-147,-146,-147,-147,-154,-159,-161,-157,-154,-152,-155,-150,-155,-152,-151,-151,-154,-155,-154,-155,-158,-156,-155,-156,-154,-154,-153,-154,-153,-155,-157,-157,-158,-160,-162,-162,-163,-162,-168,-165,-162,-162,-163,-163,-164,-166,-166,-171,-170,-169,-166,-169,-169,-176,-173,-176,-171,-172,-173,-173,-173,-175,-175,-176,-176,-177,-178,-179,-179,-179,-180,-180,-180,-180,-181,-181,-182,-183,-185,-186,-188,-190,-191,-193,-193,-193,-194,-195,-195,-195,-196,-197,-198,-199,-201,-202,-202,-205,-204,-204,-206,-208,-209,-209,-209,-209,-208,-206,-204,-202,-206,-212,-217,-224,-224,-216,-215,-212,-215,-221,-221,-222,-220,-223,-223,-223,-223,-220,-220,-220,-216,-220,-224,-223,-224,-223,-223,-225,-226,-228,-229,-228,-227,-226,-230,-232,-236,-236,-236,-236,-237,-236,-237,-240,-241,-243,-243,-245,-248,-247,-248,-249,-249,-251,-250
72.8479166666667,-53,-53,-53,-53,-56,-57,-57,-57,-57,-57,-58,-57,-57,-57,-57,-57,-57,-57,-57,-58,-59,-59,-60,-62,-61,-60,-59,-59,-58,-58,-58,-58,-58,-58,-58,-58,-58,-58,-58,-58,-58,-58,-58,-58,-58,-58,-58,-58,-58,-58,-58,-58,-58,-58,-58,-58,-58,-58,-59,-59,-59,-60,-60,-61,-61,-61,-60,-60,-61,-59,-59,-59,-59,-60,-60,-60,-60,-60,-60,-60,-60,-59,-59,-59,-59,-59,-59,-59,-59,-59,-59,-59,-59,-60,-61,-61,-61,-61,-61,-60,-60,-59,-60,-60,-60,-59,-59,-63,-62,-59,-59,-60,-61,-61,-61,-61,-61,-61,-61,-61,-61,-61,-60,-60,-60,-60,-60,-60,-60,-60,-60,-61,-61,-61,-61,-61,-61,-62,-62,-62,-62,-62,-63,-63,-63,-63,-63,-64,-64,-64,-64,-64,-64,-64,-64,-64,-64,-64,-64,-64,-65,-65,-65,-65,-65,-65,-66,-66,-67,-67,-67,-67,-68,-68,-68,-68,-68,-68,-68,-68,-69,-69,-70,-70,-70,-71,-71,-71,-71,-71,-71,-71,-71,-71,-71,-71,-70,-71,-71,-71,-72,-71,-75,-74,-74,-74,-75,-75,-76,-77,-76,-72,-71,-71,-71,-72,-73,-74,-75,-76,-76,-76,-76,-76,-76,-77,-77,-77,-78,-78,-79,-79,-79,-80,-82,-82,-83,-83,-83,-83,-84,-84,-84,-85,-86,-89,-91,-90,-91,-93,-93,-93,-92,-92,-92,-93,-91,-92,-92,-93,-95,-95,-99,-98,-99,-98,-97,-100,-103,-104,-105,-106,-108,-109,-109,-109,-109,-110,-111,-112,-114,-115,-115,-114,-114,-115,-115,-115,-116,-119,-120,-118,-118,-122,-126,-127,-125,-127,-130,-132,-136,-130,-132,-132,-136,-135,-135,-135,-136,-140,-137,-154,-142,-144,-146,-146,-147,-146,-146,-149,-153,-153,-152,-151,-152,-151,-151,-148,-150,-150,-150,-149,-150,-153,-156,-156,-156,-154,-156,-157,-158,-159,-160,-160,-159,-159,-161,-160,-161,-162,-162,-163,-163,-163,-164,-165,-165,-167,-167,-168,-171,-174,-172,-168,-171,-177,-178,-168,-168,-169,-171,-173,-176,-178,-176,-176,-178,-179,-178,-179,-181,-182,-182,-183,-183,-183,-183,-183,-184,-184,-185,-186,-187,-188,-190,-191,-193,-194,-195,-195,-196,-197,-198,-198,-198,-200,-202,-204,-206,-204,-204,-204,-203,-204,-206,-208,-209,-211,-212,-212,-212,-211,-209,-206,-204,-208,-213,-214,-217,-218,-221,-222,-222,-223,-223,-222,-219,-220,-219,-219,-220,-220,-219,-220,-220,-219,-222,-224,-224,-225,-226,-228,-229,-231,-232,-232,-231,-230,-228,-232,-233,-234,-236,-238,-238,-239,-239,-241,-246,-247,-248,-247,-248,-249,-251,-252,-252,-254,-254,-253
72.8520833333333,-55,-54,-57,-57,-57,-57,-57,-57,-57,-57,-57,-57,-57,-57,-57,-57,-57,-57,-57,-57,-58,-59,-59,-61,-63,-62,-60,-59,-59,-58,-58,-58,-58,-58,-58,-58,-58,-58,-58,-58,-59,-59,-59,-59,-59,-59,-58,-58,-58,-58,-58,-58,-58,-59,-59,-59,-59,-59,-59,-59,-59,-60,-61,-61,-61,-61,-61,-60,-60,-59,-60,-60,-60,-60,-60,-60,-60,-60,-60,-60,-60,-59,-59,-59,-59,-59,-59,-58,-58,-59,-59,-59,-59,-60,-62,-63,-63,-63,-62,-62,-62,-60,-60,-60,-60,-60,-60,-61,-60,-59,-59,-59,-60,-60,-60,-60,-61,-61,-61,-61,-61,-61,-61,-60,-60,-60,-60,-60,-60,-60,-60,-61,-61,-61,-62,-62,-62,-62,-62,-62,-63,-63,-63,-63,-63,-64,-64,-64,-64,-64,-64,-64,-65,-65,-65,-65,-65,-65,-65,-65,-65,-66,-66,-66,-66,-66,-66,-67,-67,-67,-68,-68,-69,-69,-69,-69,-69,-69,-69,-69,-69,-70,-70,-71,-71,-72,-72,-72,-72,-72,-72,-72,-72,-72,-72,-72,-72,-72,-72,-72,-72,-73,-75,-75,-76,-76,-75,-75,-76,-76,-77,-72,-73,-71,-72,-72,-73,-75,-76,-76,-76,-76,-76,-76,-76,-77,-77,-77,-78,-79,-80,-81,-82,-83,-84,-85,-85,-85,-86,-86,-86,-85,-85,-85,-86,-89,-92,-94,-95,-96,-96,-95,-94,-94,-94,-93,-92,-93,-93,-94,-96,-99,-99,-99,-99,-100,-99,-101,-104,-105,-107,-108,-110,-111,-111,-111,-111,-111,-111,-112,-113,-113,-112,-114,-115,-116,-116,-119,-119,-121,-123,-121,-124,-126,-127,-127,-129,-131,-130,-132,-135,-136,-135,-136,-139,-133,-132,-133,-134,-134,-142,-140,-137,-159,-142,-143,-147,-147,-148,-149,-150,-148,-149,-150,-154,-151,-151,-152,-150,-153,-153,-152,-151,-151,-153,-154,-154,-154,-156,-157,-161,-163,-162,-162,-160,-162,-160,-163,-163,-164,-165,-166,-165,-165,-164,-167,-168,-168,-169,-169,-169,-166,-166,-177,-169,-170,-172,-178,-181,-174,-175,-174,-175,-177,-178,-181,-182,-183,-181,-181,-183,-185,-185,-185,-187,-188,-187,-186,-187,-188,-189,-190,-191,-192,-193,-195,-196,-197,-197,-198,-199,-200,-201,-201,-202,-203,-206,-208,-209,-207,-204,-206,-207,-208,-209,-209,-210,-211,-213,-215,-216,-217,-217,-213,-213,-218,-222,-223,-223,-220,-220,-219,-221,-221,-220,-222,-219,-218,-216,-217,-218,-219,-221,-222,-222,-223,-225,-225,-226,-227,-230,-233,-236,-236,-236,-237,-235,-236,-237,-237,-237,-238,-238,-237,-243,-245,-247,-246,-243,-243,-251,-251,-252,-252,-252,-253,-254,-256,-257,-260
72.85625,-57,-56,-56,-56,-57,-57,-57,-57,-57,-58,-58,-57,-57,-57,-57,-57,-57,-57,-57,-57,-58,-58,-60,-61,-61,-60,-59,-59,-59,-59,-58,-58,-58,-58,-59,-59,-59,-59,-59,-59,-59,-59,-59,-59,-59,-59,-59,-59,-59,-59,-59,-59,-59,-59,-59,-59,-59,-59,-59,-59,-59,-60,-61,-61,-61,-60,-59,-59,-59,-60,-60,-60,-60,-60,-60,-60,-60,-60,-60,-60,-60,-59,-59,-59,-59,-59,-58,-58,-58,-58,-59,-59,-59,-61,-63,-64,-63,-62,-63,-62,-63,-63,-57,-60,-60,-60,-60,-59,-59,-58,-59,-59,-59,-60,-60,-61,-61,-61,-61,-61,-61,-61,-61,-61,-61,-60,-60,-60,-60,-60,-60,-61,-61,-62,-62,-62,-62,-62,-63,-63,-63,-63,-63,-63,-64,-64,-64,-64,-65,-65,-65,-65,-65,-65,-65,-65,-65,-65,-66,-66,-66,-66,-67,-67,-67,-67,-67,-68,-68,-68,-69,-69,-69,-69,-69,-69,-69,-69,-69,-69,-70,-70,-71,-72,-72,-72,-73,-73,-73,-73,-73,-73,-73,-73,-73,-73,-73,-73,-74,-74,-74,-75,-76,-76,-76,-75,-76,-76,-75,-75,-75,-75,-77,-73,-74,-73,-74,-76,-77,-76,-77,-77,-77,-77,-77,-77,-77,-78,-79,-81,-83,-84,-85,-86,-86,-87,-88,-88,-89,-89,-88,-87,-86,-85,-85,-87,-90,-91,-93,-95,-96,-96,-95,-95,-95,-95,-94,-94,-95,-95,-97,-100,-100,-100,-100,-101,-101,-103,-105,-107,-109,-110,-112,-113,-113,-113,-112,-112,-112,-112,-112,-113,-113,-115,-116,-118,-119,-121,-122,-125,-125,-125,-124,-126,-128,-129,-132,-131,-131,-132,-131,-131,-134,-131,-131,-131,-137,-135,-136,-141,-137,-139,-142,-147,-147,-151,-152,-149,-150,-151,-151,-150,-150,-150,-152,-152,-153,-152,-153,-153,-151,-154,-151,-151,-151,-155,-156,-157,-156,-158,-156,-159,-160,-159,-163,-159,-160,-160,-164,-163,-161,-165,-166,-166,-169,-169,-166,-167,-168,-168,-169,-169,-172,-174,-174,-171,-173,-180,-180,-177,-187,-183,-179,-179,-177,-181,-180,-182,-183,-186,-186,-187,-188,-188,-190,-191,-189,-189,-191,-192,-192,-193,-194,-196,-197,-198,-199,-199,-200,-201,-202,-203,-203,-204,-205,-206,-208,-209,-210,-208,-208,-209,-211,-209,-211,-213,-214,-215,-216,-217,-219,-221,-224,-221,-219,-224,-221,-222,-222,-221,-218,-218,-218,-219,-220,-222,-219,-218,-217,-218,-219,-221,-224,-225,-226,-227,-228,-228,-228,-230,-234,-237,-240,-240,-239,-239,-239,-239,-239,-241,-244,-241,-245,-241,-240,-240,-241,-242,-244,-244,-246,-249,-250,-250,-252,-257,-257,-258,-260,-260
72.8604166666667,-57,-57,-57,-57,-56,-55,-54,-54,-54,-56,-58,-58,-58,-57,-57,-57,-57,-57,-58,-59,-58,-58,-58,-58,-58,-58,-59,-58,-58,-59,-59,-59,-59,-59,-59,-59,-59,-59,-59,-59,-59,-59,-59,-59,-59,-59,-59,-59,-59,-59,-59,-59,-59,-59,-59,-59,-59,-59,-59,-59,-60,-60,-61,-60,-59,-59,-59,-60,-61,-61,-60,-60,-60,-60,-60,-60,-60,-60,-60,-60,-60,-59,-59,-59,-59,-59,-58,-58,-58,-57,-58,-58,-57,-61,-62,-61,-62,-59,-60,-60,-59,-59,-59,-59,-58,-57,-58,-59,-59,-58,-58,-59,-59,-60,-61,-61,-61,-62,-62,-62,-62,-62,-61,-61,-61,-61,-60,-60,-60,-60,-61,-61,-62,-62,-62,-62,-63,-63,-63,-63,-64,-64,-64,-64,-64,-64,-65,-65,-65,-65,-65,-65,-66,-66,-66,-66,-66,-66,-67,-67,-67,-68,-68,-68,-68,-68,-68,-69,-69,-69,-69,-70,-70,-70,-70,-70,-70,-69,-69,-70,-70,-71,-72,-72,-73,-73,-74,-74,-74,-74,-74,-74,-74,-75,-75,-75,-75,-75,-75,-76,-76,-76,-77,-77,-77,-77,-77,-77,-76,-75,-76,-76,-76,-77,-79,-75,-76,-76,-77,-76,-77,-78,-78,-78,-77,-77,-78,-79,-80,-82,-84,-86,-87,-88,-89,-90,-91,-91,-92,-91,-90,-88,-86,-85,-84,-83,-88,-87,-89,-92,-95,-96,-96,-96,-96,-96,-96,-97,-97,-98,-100,-102,-102,-103,-102,-103,-104,-106,-107,-109,-111,-112,-113,-114,-115,-115,-115,-114,-114,-114,-114,-114,-115,-117,-118,-120,-121,-123,-124,-124,-124,-124,-125,-128,-126,-130,-130,-131,-131,-130,-132,-136,-133,-132,-134,-135,-138,-139,-140,-141,-139,-141,-143,-145,-148,-152,-153,-150,-150,-150,-151,-151,-152,-151,-150,-151,-152,-153,-153,-153,-152,-150,-154,-152,-153,-152,-156,-157,-158,-159,-160,-160,-160,-160,-160,-162,-161,-164,-166,-166,-167,-166,-166,-165,-165,-169,-169,-170,-170,-171,-172,-175,-174,-175,-174,-174,-176,-174,-177,-175,-178,-180,-183,-184,-185,-185,-186,-186,-184,-183,-186,-189,-190,-192,-192,-190,-191,-192,-193,-195,-194,-196,-198,-200,-200,-201,-202,-202,-203,-203,-204,-205,-206,-206,-207,-209,-210,-211,-211,-210,-210,-212,-213,-215,-218,-216,-218,-218,-220,-220,-221,-222,-222,-222,-224,-225,-223,-221,-220,-219,-221,-223,-222,-222,-222,-222,-221,-221,-220,-220,-222,-225,-227,-229,-230,-232,-235,-234,-231,-233,-236,-238,-239,-240,-245,-243,-241,-243,-243,-243,-242,-242,-243,-242,-241,-244,-244,-243,-246,-250,-253,-253,-254,-255,-258,-256,-258,-260,-262,-263
72.8645833333333,-58,-57,-57,-57,-56,-55,-54,-53,-53,-54,-56,-58,-57,-57,-58,-57,-57,-57,-57,-58,-58,-58,-59,-60,-58,-58,-58,-58,-58,-59,-59,-59,-59,-59,-59,-59,-59,-59,-59,-59,-59,-59,-59,-59,-59,-59,-59,-59,-59,-59,-59,-59,-59,-59,-59,-60,-60,-60,-59,-59,-63,-60,-60,-60,-60,-60,-60,-60,-60,-60,-60,-60,-60,-60,-60,-60,-60,-60,-59,-60,-60,-60,-60,-59,-59,-59,-59,-59,-58,-58,-58,-58,-52,-62,-63,-57,-59,-59,-58,-59,-59,-60,-60,-59,-58,-58,-58,-55,-55,-56,-57,-59,-60,-60,-61,-61,-62,-62,-62,-62,-62,-62,-62,-62,-61,-61,-61,-61,-61,-61,-61,-62,-62,-62,-63,-63,-63,-63,-64,-64,-64,-64,-64,-64,-65,-65,-65,-65,-66,-66,-66,-66,-66,-66,-67,-67,-67,-67,-68,-68,-68,-69,-69,-69,-69,-69,-69,-70,-70,-70,-70,-71,-71,-71,-71,-70,-70,-70,-70,-70,-71,-72,-72,-73,-74,-74,-75,-75,-75,-75,-75,-76,-76,-76,-76,-76,-77,-77,-77,-77,-78,-78,-79,-79,-79,-78,-78,-78,-79,-81,-77,-79,-79,-79,-80,-81,-81,-80,-77,-77,-77,-78,-78,-78,-78,-78,-78,-79,-80,-81,-83,-85,-87,-88,-90,-92,-93,-93,-94,-94,-92,-89,-87,-85,-84,-85,-85,-90,-87,-91,-94,-96,-96,-96,-97,-98,-99,-99,-100,-101,-103,-104,-104,-104,-105,-106,-107,-109,-110,-111,-112,-114,-115,-116,-117,-117,-117,-117,-117,-116,-117,-117,-118,-119,-120,-122,-123,-125,-125,-124,-125,-126,-127,-136,-132,-132,-132,-132,-134,-134,-135,-139,-137,-137,-141,-141,-142,-142,-142,-142,-141,-143,-145,-147,-149,-151,-151,-150,-149,-149,-149,-149,-151,-152,-152,-151,-151,-154,-151,-152,-153,-157,-151,-153,-153,-153,-154,-152,-157,-157,-159,-159,-160,-160,-161,-163,-163,-163,-166,-190,-167,-172,-173,-176,-174,-176,-169,-171,-173,-171,-172,-174,-176,-178,-183,-181,-179,-178,-179,-180,-180,-182,-182,-184,-185,-188,-192,-190,-188,-190,-191,-189,-187,-188,-191,-196,-198,-198,-197,-196,-197,-198,-200,-202,-202,-203,-205,-205,-205,-206,-207,-207,-208,-209,-210,-211,-212,-213,-213,-213,-213,-214,-215,-218,-219,-217,-218,-221,-222,-223,-223,-222,-223,-223,-224,-224,-226,-225,-224,-224,-223,-222,-225,-225,-225,-227,-226,-225,-225,-225,-226,-230,-232,-234,-234,-235,-240,-241,-239,-238,-236,-241,-241,-243,-243,-243,-243,-242,-240,-242,-241,-244,-246,-250,-250,-250,-250,-251,-252,-256,-260,-258,-260,-261,-263,-258,-263,-264,-266,-268
72.86875,-58,-57,-58,-57,-56,-56,-55,-54,-54,-53,-54,-55,-54,-55,-57,-58,-58,-58,-57,-57,-58,-59,-59,-60,-58,-58,-58,-58,-58,-59,-59,-59,-59,-59,-59,-59,-59,-59,-59,-59,-59,-59,-59,-59,-59,-59,-59,-59,-59,-59,-59,-59,-60,-60,-60,-60,-61,-61,-60,-60,-60,-59,-59,-59,-60,-60,-60,-60,-60,-60,-60,-60,-60,-60,-60,-60,-60,-59,-59,-60,-60,-60,-60,-60,-59,-59,-59,-59,-59,-58,-62,-62,-62,-63,-63,-59,-59,-59,-58,-58,-58,-59,-59,-59,-59,-59,-59,-52,-51,-54,-57,-59,-60,-61,-62,-62,-62,-63,-63,-63,-63,-63,-62,-62,-62,-62,-62,-62,-61,-62,-62,-63,-63,-63,-63,-63,-63,-64,-64,-64,-65,-65,-65,-65,-65,-66,-66,-66,-66,-66,-66,-66,-67,-67,-67,-68,-68,-68,-69,-69,-69,-69,-69,-70,-70,-70,-70,-70,-71,-71,-71,-71,-72,-71,-71,-71,-71,-70,-70,-71,-72,-73,-73,-74,-75,-75,-76,-76,-76,-77,-77,-77,-77,-77,-78,-78,-78,-79,-79,-79,-80,-80,-80,-80,-80,-80,-80,-81,-81,-81,-80,-83,-81,-81,-81,-81,-82,-84,-84,-82,-80,-78,-79,-79,-79,-79,-79,-79,-79,-80,-82,-83,-85,-88,-91,-94,-94,-94,-94,-94,-92,-89,-87,-85,-84,-84,-85,-86,-87,-92,-95,-96,-97,-97,-98,-99,-101,-103,-104,-105,-106,-107,-107,-107,-108,-109,-110,-111,-111,-113,-114,-115,-116,-118,-119,-120,-120,-119,-119,-119,-119,-120,-121,-122,-122,-123,-125,-128,-127,-126,-126,-127,-128,-129,-131,-136,-136,-135,-135,-136,-136,-136,-137,-139,-144,-143,-144,-144,-143,-143,-144,-145,-147,-148,-149,-150,-151,-150,-149,-148,-148,-148,-149,-150,-151,-154,-154,-154,-156,-154,-157,-155,-157,-152,-155,-156,-156,-154,-159,-158,-156,-157,-159,-160,-160,-161,-160,-160,-162,-162,-159,-163,-170,-170,-172,-173,-174,-175,-179,-182,-179,-178,-176,-176,-177,-179,-182,-186,-186,-187,-185,-183,-183,-184,-186,-187,-188,-190,-193,-198,-195,-193,-196,-193,-191,-192,-193,-195,-202,-202,-207,-204,-202,-201,-203,-205,-207,-207,-207,-207,-208,-209,-210,-211,-211,-213,-213,-215,-216,-215,-214,-214,-217,-219,-219,-219,-220,-222,-224,-224,-223,-224,-224,-223,-224,-225,-226,-227,-227,-230,-229,-227,-230,-230,-231,-230,-229,-230,-232,-233,-234,-235,-237,-238,-239,-237,-238,-239,-239,-239,-238,-241,-241,-242,-241,-241,-244,-247,-249,-250,-250,-252,-254,-255,-257,-256,-255,-259,-256,-257,-258,-259,-260,-258,-260,-263,-267,-264,-268,-270
72.8729166666667,-57,-57,-58,-57,-57,-57,-56,-56,-55,-54,-54,-54,-53,-54,-55,-57,-57,-57,-58,-58,-58,-58,-58,-58,-61,-61,-58,-58,-58,-58,-58,-59,-59,-59,-59,-59,-59,-60,-60,-60,-60,-60,-59,-59,-59,-59,-59,-60,-60,-60,-60,-60,-60,-59,-60,-59,-60,-60,-59,-59,-60,-60,-61,-60,-60,-60,-60,-60,-60,-59,-60,-60,-60,-60,-60,-60,-60,-60,-60,-60,-60,-60,-60,-60,-60,-60,-59,-60,-59,-56,-59,-59,-62,-62,-60,-59,-58,-58,-59,-58,-59,-59,-59,-59,-59,-59,-58,-57,-52,-55,-58,-60,-61,-62,-63,-63,-63,-63,-63,-63,-63,-63,-63,-63,-64,-65,-62,-65,-62,-63,-63,-64,-64,-63,-64,-64,-64,-65,-65,-65,-66,-66,-66,-66,-66,-66,-66,-67,-67,-67,-67,-67,-67,-68,-68,-68,-68,-69,-69,-70,-70,-70,-70,-70,-71,-71,-71,-71,-72,-72,-72,-72,-72,-72,-72,-72,-72,-71,-71,-72,-73,-74,-74,-75,-76,-76,-77,-77,-78,-78,-78,-78,-78,-79,-79,-79,-80,-80,-81,-81,-81,-82,-82,-82,-82,-82,-83,-83,-83,-83,-84,-86,-87,-87,-84,-84,-83,-83,-83,-84,-85,-83,-82,-81,-79,-81,-82,-81,-79,-80,-81,-82,-84,-87,-92,-94,-95,-93,-93,-91,-90,-88,-87,-85,-84,-85,-86,-87,-89,-91,-95,-97,-97,-97,-98,-100,-103,-106,-108,-109,-110,-111,-111,-111,-111,-112,-112,-113,-113,-115,-116,-117,-118,-120,-121,-122,-122,-122,-122,-122,-122,-123,-123,-125,-125,-125,-128,-129,-129,-134,-129,-131,-131,-132,-130,-136,-140,-143,-138,-136,-136,-137,-138,-139,-140,-141,-144,-144,-143,-144,-146,-147,-148,-149,-150,-150,-150,-150,-149,-148,-148,-149,-151,-154,-157,-155,-157,-158,-159,-156,-157,-159,-156,-159,-158,-156,-158,-155,-158,-157,-156,-157,-159,-161,-161,-163,-161,-164,-165,-168,-166,-165,-170,-172,-174,-175,-175,-177,-180,-180,-180,-181,-182,-187,-190,-187,-184,-182,-184,-185,-187,-189,-192,-190,-192,-189,-189,-189,-190,-191,-192,-194,-196,-197,-198,-198,-198,-196,-196,-197,-199,-201,-209,-211,-208,-210,-208,-209,-210,-209,-209,-211,-213,-214,-213,-216,-216,-217,-219,-217,-217,-215,-218,-220,-220,-221,-222,-223,-225,-225,-224,-225,-225,-226,-226,-226,-225,-226,-227,-228,-231,-233,-234,-235,-234,-231,-234,-236,-234,-234,-236,-237,-239,-240,-241,-241,-241,-242,-244,-244,-245,-245,-246,-250,-250,-251,-251,-253,-256,-258,-259,-260,-260,-252,-263,-262,-259,-258,-258,-258,-263,-265,-265,-267,-267,-268,-269,-268,-269,-269
72.8770833333333,-58,-58,-57,-58,-57,-58,-58,-57,-57,-56,-56,-55,-54,-55,-54,-55,-55,-54,-56,-57,-58,-58,-58,-58,-58,-60,-58,-57,-58,-58,-58,-58,-59,-59,-59,-59,-59,-60,-60,-60,-60,-60,-60,-60,-60,-60,-60,-60,-60,-60,-60,-60,-60,-59,-60,-60,-60,-59,-59,-60,-61,-61,-61,-61,-61,-61,-60,-60,-60,-60,-60,-60,-60,-60,-60,-60,-60,-60,-60,-60,-61,-61,-61,-61,-62,-62,-62,-58,-60,-59,-59,-59,-59,-59,-59,-60,-58,-59,-59,-59,-59,-59,-59,-59,-59,-59,-59,-56,-57,-58,-59,-59,-60,-62,-63,-64,-64,-64,-64,-64,-64,-64,-64,-64,-65,-65,-64,-66,-66,-64,-64,-64,-65,-65,-65,-65,-64,-65,-66,-66,-66,-66,-67,-67,-67,-67,-67,-67,-67,-67,-68,-68,-68,-68,-68,-69,-69,-69,-70,-70,-71,-71,-71,-71,-72,-72,-72,-72,-73,-73,-73,-73,-73,-73,-73,-73,-73,-73,-73,-73,-74,-75,-76,-76,-77,-78,-78,-79,-79,-79,-79,-79,-80,-80,-81,-81,-81,-82,-82,-83,-83,-84,-84,-84,-84,-85,-85,-85,-85,-86,-87,-88,-90,-89,-87,-86,-85,-85,-84,-84,-84,-86,-87,-86,-85,-86,-86,-84,-82,-82,-82,-83,-83,-84,-89,-91,-91,-90,-89,-89,-89,-90,-88,-86,-85,-86,-88,-89,-89,-90,-94,-96,-97,-98,-99,-102,-106,-109,-112,-114,-115,-115,-115,-115,-115,-115,-115,-115,-116,-117,-119,-119,-120,-121,-123,-123,-123,-123,-124,-125,-125,-125,-126,-126,-128,-127,-128,-132,-129,-129,-129,-130,-131,-130,-131,-137,-142,-144,-144,-146,-141,-140,-140,-141,-142,-142,-142,-144,-144,-146,-147,-149,-150,-150,-151,-150,-150,-150,-149,-149,-149,-150,-152,-154,-154,-154,-158,-157,-159,-160,-160,-160,-159,-160,-158,-159,-156,-158,-158,-159,-158,-160,-160,-162,-164,-165,-164,-166,-169,-171,-170,-170,-173,-174,-176,-177,-177,-179,-180,-180,-181,-183,-183,-185,-188,-187,-187,-190,-190,-190,-189,-187,-189,-190,-192,-194,-195,-196,-196,-197,-194,-196,-195,-197,-203,-205,-204,-203,-203,-205,-207,-201,-203,-205,-207,-211,-217,-216,-215,-217,-215,-216,-216,-218,-221,-219,-219,-219,-220,-221,-221,-222,-221,-222,-221,-223,-223,-225,-226,-226,-225,-227,-228,-229,-229,-228,-230,-230,-230,-230,-232,-233,-236,-237,-238,-235,-235,-236,-237,-238,-238,-240,-240,-241,-241,-242,-243,-246,-246,-247,-247,-248,-248,-249,-249,-250,-252,-254,-255,-259,-259,-258,-259,-261,-263,-263,-263,-265,-265,-266,-270,-267,-269,-272,-273,-274,-275,-279,-280,-284
72.88125,-56,-57,-58,-57,-57,-57,-58,-58,-58,-58,-58,-57,-56,-56,-55,-55,-55,-54,-54,-55,-57,-58,-58,-59,-59,-60,-58,-58,-58,-58,-58,-59,-58,-59,-59,-59,-59,-60,-61,-61,-60,-60,-60,-60,-60,-60,-60,-60,-60,-60,-60,-60,-60,-59,-59,-59,-59,-60,-60,-61,-61,-60,-61,-61,-61,-61,-61,-60,-60,-60,-60,-61,-61,-61,-61,-61,-61,-61,-61,-61,-61,-62,-62,-62,-62,-62,-62,-60,-61,-61,-60,-59,-56,-59,-60,-60,-60,-60,-60,-60,-60,-60,-60,-60,-60,-60,-60,-59,-59,-58,-57,-54,-59,-61,-63,-64,-64,-65,-65,-65,-65,-65,-64,-64,-64,-64,-64,-64,-66,-64,-65,-67,-67,-68,-66,-68,-66,-67,-67,-67,-67,-67,-67,-68,-67,-68,-68,-68,-68,-68,-68,-68,-68,-69,-69,-69,-70,-70,-71,-71,-71,-72,-72,-72,-72,-73,-73,-73,-74,-74,-74,-74,-75,-75,-74,-74,-74,-74,-74,-75,-75,-76,-77,-78,-78,-79,-79,-80,-80,-81,-81,-81,-81,-82,-82,-83,-83,-84,-84,-85,-85,-85,-86,-86,-87,-87,-87,-87,-88,-88,-89,-90,-91,-91,-89,-89,-89,-90,-87,-88,-87,-86,-88,-90,-91,-92,-91,-89,-88,-87,-87,-86,-84,-83,-87,-89,-89,-90,-89,-89,-91,-94,-90,-91,-88,-88,-88,-89,-90,-90,-91,-93,-96,-98,-100,-105,-111,-114,-117,-118,-119,-119,-119,-119,-118,-118,-118,-118,-119,-120,-121,-122,-122,-123,-123,-124,-124,-125,-126,-127,-126,-126,-127,-127,-127,-129,-129,-130,-132,-129,-131,-131,-132,-133,-134,-139,-143,-146,-148,-149,-146,-146,-145,-142,-142,-144,-145,-145,-146,-148,-149,-150,-152,-152,-152,-151,-151,-150,-149,-149,-149,-150,-151,-151,-151,-152,-152,-152,-159,-160,-162,-164,-164,-163,-162,-165,-161,-158,-162,-163,-165,-164,-165,-164,-165,-167,-167,-168,-171,-172,-173,-173,-175,-177,-178,-179,-179,-180,-181,-182,-183,-184,-184,-185,-188,-188,-188,-189,-191,-191,-191,-193,-194,-195,-195,-195,-197,-199,-200,-198,-199,-203,-203,-205,-203,-204,-205,-206,-206,-207,-208,-210,-208,-211,-211,-206,-209,-212,-217,-221,-223,-225,-224,-221,-219,-220,-226,-216,-217,-220,-222,-222,-222,-223,-223,-224,-225,-228,-227,-226,-227,-229,-229,-231,-231,-232,-233,-235,-233,-235,-234,-235,-237,-238,-239,-240,-241,-239,-240,-240,-242,-245,-248,-248,-245,-249,-250,-249,-250,-251,-256,-255,-253,-254,-254,-254,-256,-258,-260,-261,-262,-262,-262,-263,-265,-264,-265,-266,-268,-269,-270,-272,-273,-273,-271,-276,-277,-279,-281,-283
72.8854166666667,-54,-54,-55,-55,-58,-58,-58,-58,-58,-58,-59,-59,-58,-57,-56,-56,-55,-55,-55,-55,-56,-57,-58,-58,-59,-60,-60,-59,-58,-58,-58,-58,-58,-59,-59,-58,-59,-59,-60,-61,-61,-60,-60,-60,-60,-60,-61,-61,-61,-61,-60,-60,-60,-60,-60,-60,-60,-60,-61,-61,-61,-61,-61,-61,-61,-61,-61,-61,-61,-61,-61,-61,-62,-62,-62,-62,-62,-62,-62,-62,-62,-62,-62,-62,-62,-63,-63,-62,-62,-61,-60,-59,-57,-59,-60,-60,-60,-61,-61,-61,-61,-61,-61,-61,-61,-62,-62,-61,-59,-57,-55,-55,-59,-60,-62,-63,-64,-65,-66,-66,-66,-65,-65,-65,-64,-64,-64,-65,-66,-65,-66,-68,-68,-68,-68,-69,-69,-67,-69,-69,-68,-67,-68,-70,-68,-68,-68,-69,-69,-69,-69,-69,-69,-69,-70,-70,-70,-71,-71,-72,-72,-72,-73,-73,-73,-73,-74,-74,-75,-75,-75,-76,-76,-76,-76,-76,-76,-76,-76,-76,-77,-77,-78,-79,-79,-80,-81,-81,-82,-82,-82,-83,-83,-83,-84,-84,-85,-85,-86,-86,-87,-87,-88,-88,-89,-89,-89,-90,-90,-90,-91,-92,-92,-92,-92,-92,-92,-92,-90,-90,-92,-91,-90,-90,-91,-94,-95,-95,-95,-93,-92,-91,-89,-89,-90,-88,-89,-93,-92,-91,-92,-94,-94,-95,-94,-88,-89,-88,-90,-92,-93,-94,-94,-95,-100,-109,-116,-121,-122,-123,-124,-124,-123,-123,-122,-122,-122,-122,-122,-123,-124,-124,-124,-124,-124,-124,-125,-126,-127,-128,-129,-129,-129,-129,-130,-132,-133,-132,-132,-134,-133,-135,-135,-136,-138,-141,-144,-147,-149,-150,-150,-150,-148,-145,-145,-145,-146,-148,-148,-148,-148,-149,-153,-153,-154,-153,-151,-149,-150,-150,-149,-150,-153,-151,-154,-153,-158,-154,-160,-155,-162,-163,-166,-168,-169,-167,-167,-169,-170,-165,-169,-167,-167,-168,-167,-169,-170,-171,-173,-175,-176,-177,-178,-179,-180,-181,-181,-182,-183,-184,-184,-185,-186,-187,-188,-189,-189,-190,-191,-192,-193,-196,-203,-196,-196,-198,-200,-201,-202,-204,-206,-208,-202,-203,-206,-207,-207,-210,-214,-217,-214,-210,-209,-210,-212,-212,-213,-213,-214,-215,-218,-218,-221,-224,-225,-226,-224,-223,-224,-224,-224,-224,-224,-225,-221,-222,-223,-225,-225,-223,-224,-225,-225,-225,-227,-229,-229,-240,-236,-239,-238,-238,-240,-240,-241,-242,-243,-243,-245,-242,-245,-247,-248,-252,-243,-244,-248,-246,-246,-248,-253,-248,-254,-261,-264,-261,-264,-267,-268,-266,-266,-268,-267,-268,-273,-273,-274,-275,-275,-273,-278,-278,-279,-279,-280,-280,-280,-282,-285,-286
72.8895833333333,-54,-54,-54,-53,-54,-56,-54,-60,-58,-58,-58,-58,-58,-58,-58,-58,-57,-55,-55,-55,-55,-56,-58,-61,-59,-58,-60,-62,-60,-59,-59,-58,-58,-59,-59,-59,-59,-59,-59,-60,-60,-60,-60,-60,-61,-61,-61,-61,-61,-60,-60,-60,-60,-60,-61,-61,-61,-61,-61,-61,-61,-61,-61,-61,-62,-62,-62,-62,-62,-62,-62,-62,-62,-63,-63,-63,-63,-63,-63,-63,-63,-63,-62,-62,-62,-63,-63,-63,-63,-62,-61,-60,-60,-60,-60,-59,-58,-60,-61,-62,-62,-62,-62,-62,-62,-62,-62,-62,-60,-57,-55,-52,-51,-55,-63,-64,-63,-65,-66,-67,-66,-65,-64,-64,-64,-65,-65,-66,-66,-67,-67,-68,-68,-69,-69,-69,-69,-69,-70,-69,-70,-70,-70,-70,-69,-69,-69,-70,-70,-70,-70,-69,-70,-70,-70,-70,-71,-71,-72,-72,-73,-73,-73,-73,-74,-74,-75,-75,-76,-76,-77,-77,-77,-77,-77,-77,-77,-77,-77,-78,-78,-79,-79,-80,-81,-82,-82,-83,-83,-84,-84,-84,-85,-85,-86,-86,-87,-87,-88,-88,-89,-89,-89,-90,-90,-91,-91,-92,-92,-92,-93,-93,-94,-94,-94,-94,-94,-94,-93,-94,-95,-95,-95,-94,-93,-93,-94,-98,-100,-99,-98,-97,-95,-95,-92,-89,-92,-96,-97,-97,-102,-97,-97,-102,-102,-99,-97,-92,-92,-94,-94,-95,-93,-95,-103,-116,-124,-128,-128,-128,-128,-128,-128,-127,-126,-125,-125,-125,-125,-125,-126,-126,-126,-125,-125,-125,-126,-127,-127,-128,-130,-139,-131,-131,-135,-135,-134,-132,-135,-136,-137,-138,-139,-140,-142,-144,-146,-148,-150,-151,-151,-152,-151,-150,-150,-151,-156,-152,-150,-151,-151,-152,-152,-154,-156,-155,-154,-151,-150,-153,-152,-154,-156,-155,-158,-160,-160,-161,-163,-165,-167,-167,-167,-168,-170,-173,-175,-171,-172,-173,-179,-173,-171,-173,-173,-172,-174,-175,-176,-177,-179,-179,-180,-181,-182,-182,-183,-184,-185,-186,-186,-187,-188,-189,-189,-190,-190,-192,-193,-193,-194,-197,-200,-196,-197,-199,-201,-202,-202,-203,-205,-206,-211,-214,-216,-215,-210,-210,-211,-215,-221,-223,-224,-221,-220,-219,-216,-217,-217,-215,-217,-218,-218,-220,-222,-223,-225,-226,-227,-227,-226,-227,-226,-230,-222,-223,-224,-224,-226,-225,-228,-227,-231,-228,-231,-232,-233,-232,-234,-240,-245,-244,-244,-242,-242,-241,-243,-245,-246,-248,-250,-253,-251,-256,-248,-249,-252,-252,-250,-254,-256,-258,-259,-258,-257,-261,-261,-263,-261,-262,-264,-267,-266,-269,-267,-269,-272,-277,-273,-278,-275,-279,-279,-287,-290,-290,-292,-292,-296,-295
72.89375,-55,-55,-55,-55,-56,-55,-55,-56,-56,-55,-58,-58,-57,-59,-59,-59,-57,-55,-56,-56,-55,-55,-59,-62,-60,-60,-61,-60,-61,-60,-59,-59,-59,-59,-59,-59,-59,-59,-59,-59,-60,-60,-60,-61,-61,-62,-62,-60,-60,-60,-60,-60,-60,-61,-61,-61,-61,-61,-61,-61,-62,-62,-62,-62,-62,-62,-62,-62,-62,-62,-63,-63,-63,-63,-63,-63,-63,-64,-64,-64,-63,-63,-62,-62,-62,-62,-63,-64,-64,-61,-61,-62,-61,-61,-61,-58,-57,-61,-61,-61,-61,-62,-62,-62,-62,-62,-64,-64,-61,-57,-49,-49,-50,-58,-68,-64,-65,-64,-64,-64,-64,-63,-63,-64,-64,-65,-65,-66,-67,-67,-68,-68,-69,-70,-70,-70,-70,-71,-71,-71,-72,-72,-72,-71,-70,-70,-71,-71,-71,-71,-71,-70,-70,-71,-71,-71,-71,-72,-72,-73,-74,-74,-74,-74,-74,-75,-76,-76,-77,-78,-78,-78,-79,-78,-78,-78,-78,-78,-78,-79,-79,-80,-81,-81,-82,-83,-84,-84,-85,-85,-86,-86,-86,-87,-87,-88,-88,-89,-89,-90,-90,-91,-91,-92,-92,-93,-93,-93,-94,-94,-94,-95,-95,-96,-96,-96,-97,-97,-97,-98,-99,-100,-102,-99,-99,-98,-97,-98,-100,-102,-102,-102,-102,-100,-98,-97,-99,-101,-102,-102,-104,-109,-104,-106,-104,-111,-108,-103,-102,-100,-100,-112,-103,-106,-117,-131,-136,-135,-133,-131,-131,-131,-131,-131,-129,-129,-128,-128,-128,-128,-128,-128,-128,-128,-128,-128,-129,-129,-130,-132,-132,-134,-133,-133,-135,-135,-136,-137,-137,-137,-139,-140,-143,-143,-145,-146,-147,-149,-150,-152,-153,-154,-153,-152,-150,-150,-150,-153,-154,-153,-155,-156,-156,-155,-156,-158,-161,-161,-159,-159,-157,-159,-159,-159,-162,-164,-163,-167,-169,-172,-170,-169,-168,-168,-171,-174,-174,-177,-178,-178,-177,-179,-180,-176,-178,-177,-179,-178,-178,-180,-181,-183,-182,-183,-184,-184,-185,-186,-187,-188,-189,-189,-190,-190,-191,-192,-193,-193,-193,-194,-195,-196,-198,-197,-198,-199,-200,-201,-201,-202,-205,-207,-207,-209,-211,-213,-219,-226,-223,-220,-217,-216,-218,-222,-224,-224,-224,-223,-223,-225,-222,-223,-221,-221,-221,-221,-222,-224,-226,-226,-230,-229,-231,-231,-232,-231,-232,-232,-230,-229,-234,-231,-235,-233,-232,-235,-238,-237,-236,-239,-238,-243,-249,-247,-248,-247,-248,-247,-250,-251,-252,-255,-257,-259,-259,-255,-255,-254,-256,-256,-258,-265,-259,-262,-262,-262,-263,-268,-266,-266,-267,-274,-270,-270,-273,-274,-276,-278,-279,-280,-280,-280,-283,-283,-288,-284,-286,-287,-293,-289
72.8979166666667,-56,-56,-56,-56,-56,-56,-56,-56,-55,-55,-55,-57,-59,-59,-59,-59,-59,-59,-60,-58,-56,-56,-56,-59,-60,-60,-61,-61,-62,-63,-58,-59,-59,-60,-60,-60,-60,-60,-60,-60,-59,-59,-60,-61,-61,-62,-61,-60,-60,-60,-60,-61,-61,-61,-61,-61,-61,-61,-61,-62,-62,-62,-63,-63,-63,-63,-63,-63,-63,-63,-64,-64,-64,-64,-64,-64,-64,-64,-64,-64,-64,-63,-63,-63,-62,-62,-62,-62,-62,-59,-58,-60,-61,-61,-60,-61,-60,-60,-60,-61,-61,-61,-62,-62,-61,-61,-61,-62,-59,-57,-48,-48,-51,-57,-65,-60,-56,-55,-57,-58,-59,-60,-61,-62,-64,-65,-66,-67,-67,-68,-68,-69,-70,-70,-71,-71,-72,-72,-73,-73,-73,-73,-73,-73,-72,-72,-72,-72,-72,-72,-72,-72,-72,-72,-72,-72,-72,-72,-73,-74,-75,-75,-74,-74,-75,-75,-76,-77,-78,-79,-80,-80,-80,-80,-80,-79,-79,-79,-80,-80,-80,-81,-82,-82,-83,-84,-85,-86,-87,-87,-87,-87,-88,-88,-89,-90,-90,-91,-91,-92,-92,-92,-93,-93,-94,-94,-95,-95,-95,-96,-96,-96,-97,-98,-98,-99,-99,-100,-100,-101,-103,-104,-105,-103,-103,-102,-104,-103,-102,-102,-104,-106,-108,-108,-109,-105,-106,-108,-109,-110,-113,-119,-118,-114,-119,-122,-122,-117,-127,-118,-129,-130,-138,-129,-139,-142,-142,-137,-135,-132,-132,-133,-134,-134,-132,-131,-131,-130,-130,-130,-130,-130,-130,-130,-131,-132,-132,-133,-133,-134,-135,-135,-136,-139,-138,-138,-138,-138,-138,-141,-140,-141,-144,-145,-146,-148,-149,-150,-150,-150,-151,-152,-153,-151,-150,-148,-151,-150,-151,-151,-158,-157,-159,-160,-161,-161,-160,-161,-162,-166,-165,-164,-163,-163,-164,-166,-168,-168,-171,-169,-169,-171,-170,-170,-170,-174,-176,-179,-181,-183,-183,-183,-184,-184,-184,-181,-180,-182,-179,-182,-184,-185,-184,-186,-185,-186,-187,-188,-189,-189,-190,-192,-191,-192,-193,-194,-195,-195,-196,-195,-197,-197,-198,-200,-200,-202,-202,-203,-205,-204,-206,-206,-209,-209,-210,-213,-215,-216,-219,-221,-226,-225,-224,-222,-224,-224,-224,-226,-226,-226,-228,-228,-228,-227,-225,-225,-227,-224,-224,-226,-227,-230,-232,-235,-235,-236,-237,-239,-238,-239,-240,-240,-244,-245,-234,-240,-235,-242,-237,-243,-239,-240,-243,-242,-258,-253,-253,-253,-253,-251,-256,-258,-260,-263,-264,-264,-261,-257,-263,-268,-269,-262,-266,-268,-269,-271,-270,-270,-263,-267,-273,-277,-277,-276,-277,-277,-279,-281,-283,-284,-285,-285,-286,-286,-289,-288,-294,-298,-297,-297
72.9020833333333,-57,-57,-57,-57,-57,-57,-56,-56,-56,-56,-56,-56,-56,-56,-59,-59,-59,-59,-59,-59,-60,-61,-58,-57,-58,-60,-60,-61,-61,-62,-63,-62,-62,-60,-60,-60,-60,-60,-60,-60,-60,-60,-60,-60,-61,-61,-61,-61,-61,-62,-62,-62,-62,-61,-61,-60,-60,-61,-61,-62,-62,-63,-63,-64,-64,-64,-64,-64,-64,-65,-65,-65,-65,-65,-65,-65,-65,-65,-65,-65,-65,-64,-64,-63,-63,-62,-60,-56,-52,-57,-60,-46,-56,-59,-58,-61,-64,-62,-63,-64,-66,-65,-62,-65,-56,-56,-54,-49,-52,-50,-46,-47,-45,-45,-46,-46,-45,-47,-49,-51,-53,-55,-58,-61,-63,-65,-66,-67,-68,-68,-69,-70,-70,-71,-72,-73,-73,-74,-74,-74,-75,-75,-75,-74,-74,-74,-73,-73,-73,-73,-73,-73,-73,-74,-74,-74,-74,-73,-74,-75,-75,-75,-75,-75,-75,-76,-77,-78,-79,-81,-82,-82,-82,-82,-81,-81,-81,-81,-81,-81,-81,-82,-83,-83,-84,-86,-87,-88,-88,-88,-89,-89,-89,-90,-91,-91,-92,-92,-93,-93,-94,-94,-95,-95,-96,-96,-97,-97,-97,-97,-98,-98,-99,-100,-101,-101,-102,-103,-104,-105,-106,-107,-107,-107,-107,-107,-108,-106,-107,-108,-108,-107,-109,-112,-117,-113,-113,-115,-115,-117,-120,-124,-124,-123,-124,-124,-125,-127,-129,-130,-134,-136,-135,-133,-139,-132,-130,-135,-132,-132,-132,-134,-136,-136,-135,-134,-133,-133,-133,-133,-132,-133,-133,-133,-134,-136,-137,-136,-136,-137,-141,-137,-143,-143,-140,-139,-145,-140,-142,-146,-145,-144,-149,-145,-148,-148,-149,-150,-150,-148,-150,-149,-150,-150,-150,-151,-152,-150,-149,-150,-156,-159,-163,-162,-162,-164,-164,-165,-164,-165,-167,-168,-167,-165,-165,-166,-168,-169,-169,-170,-170,-173,-171,-173,-173,-173,-176,-184,-183,-185,-186,-187,-187,-187,-187,-188,-187,-187,-186,-186,-186,-188,-188,-188,-188,-188,-189,-190,-194,-191,-192,-192,-192,-193,-197,-195,-196,-197,-200,-199,-199,-199,-200,-203,-204,-205,-204,-207,-208,-209,-208,-211,-211,-212,-212,-212,-213,-215,-216,-217,-220,-223,-225,-227,-227,-227,-228,-229,-228,-228,-227,-226,-227,-228,-230,-232,-233,-230,-233,-233,-232,-234,-232,-233,-235,-238,-239,-240,-239,-241,-240,-241,-241,-242,-246,-242,-243,-244,-243,-244,-245,-245,-245,-249,-260,-259,-258,-259,-259,-259,-259,-257,-259,-261,-262,-264,-268,-269,-272,-275,-271,-271,-268,-270,-274,-274,-271,-271,-270,-275,-278,-280,-280,-281,-283,-283,-284,-287,-290,-292,-292,-291,-292,-292,-295,-295,-300,-299,-301,-301
72.90625,-59,-59,-59,-58,-58,-58,-58,-58,-57,-57,-57,-57,-56,-57,-58,-57,-56,-59,-60,-59,-59,-60,-60,-61,-58,-58,-57,-60,-60,-60,-61,-61,-61,-62,-62,-61,-60,-61,-61,-61,-61,-66,-62,-61,-61,-61,-61,-62,-62,-63,-63,-63,-62,-61,-61,-60,-60,-61,-61,-62,-63,-64,-64,-65,-65,-65,-65,-65,-66,-66,-66,-66,-66,-66,-66,-66,-66,-66,-66,-66,-65,-65,-65,-65,-64,-63,-62,-59,-54,-54,-54,-57,-63,-57,-54,-67,-66,-66,-66,-65,-67,-66,-56,-48,-49,-51,-49,-50,-50,-51,-50,-49,-46,-46,-46,-45,-46,-46,-45,-46,-48,-51,-56,-60,-63,-66,-68,-69,-69,-69,-70,-71,-71,-72,-73,-74,-75,-75,-76,-76,-76,-76,-76,-76,-76,-75,-75,-75,-75,-75,-75,-75,-76,-76,-76,-76,-76,-75,-75,-75,-76,-75,-75,-75,-75,-77,-78,-79,-81,-82,-84,-84,-84,-83,-82,-82,-82,-82,-82,-82,-82,-83,-83,-84,-85,-86,-88,-89,-89,-89,-90,-90,-91,-91,-92,-93,-94,-94,-95,-95,-95,-96,-96,-97,-97,-98,-99,-99,-99,-100,-100,-100,-101,-102,-103,-104,-105,-106,-107,-108,-109,-110,-110,-110,-111,-111,-112,-111,-112,-111,-112,-113,-112,-113,-113,-115,-116,-122,-121,-121,-124,-127,-127,-127,-127,-126,-126,-127,-126,-129,-130,-130,-133,-127,-133,-127,-132,-130,-132,-133,-133,-137,-138,-138,-136,-135,-134,-134,-135,-135,-135,-135,-136,-136,-137,-138,-140,-138,-137,-139,-142,-140,-142,-141,-142,-144,-145,-144,-144,-145,-146,-147,-148,-147,-147,-147,-148,-151,-149,-149,-152,-155,-156,-154,-154,-155,-157,-159,-157,-158,-157,-160,-159,-163,-166,-167,-167,-170,-171,-171,-168,-169,-170,-169,-169,-168,-170,-177,-174,-172,-176,-178,-177,-176,-179,-177,-180,-180,-182,-180,-187,-187,-190,-191,-192,-190,-192,-192,-194,-188,-187,-191,-192,-192,-192,-192,-193,-195,-197,-196,-196,-199,-197,-199,-199,-201,-200,-201,-202,-203,-204,-204,-205,-206,-206,-207,-207,-209,-210,-211,-211,-211,-210,-213,-214,-214,-213,-212,-212,-216,-221,-223,-224,-224,-227,-228,-228,-228,-229,-232,-231,-233,-233,-232,-233,-231,-233,-234,-235,-237,-238,-238,-237,-238,-238,-238,-238,-238,-239,-241,-244,-246,-249,-245,-248,-249,-251,-252,-251,-250,-252,-251,-252,-255,-261,-261,-260,-259,-263,-262,-262,-263,-262,-265,-266,-267,-269,-271,-273,-275,-278,-275,-276,-278,-277,-277,-280,-280,-280,-284,-285,-285,-284,-285,-288,-288,-289,-292,-294,-297,-298,-294,-298,-296,-299,-300,-300,-303,-304,-305
72.9104166666667,-60,-60,-60,-60,-59,-59,-59,-59,-59,-59,-59,-59,-58,-58,-57,-56,-56,-58,-57,-57,-60,-60,-60,-60,-61,-62,-59,-58,-58,-57,-57,-60,-65,-62,-62,-61,-61,-61,-62,-61,-61,-62,-62,-63,-62,-62,-61,-61,-62,-62,-63,-63,-63,-62,-60,-61,-61,-61,-61,-63,-65,-65,-66,-66,-65,-66,-66,-66,-66,-67,-66,-66,-67,-67,-67,-67,-67,-67,-67,-67,-67,-67,-66,-67,-66,-66,-65,-63,-59,-49,-45,-46,-46,-47,-45,-67,-67,-68,-68,-68,-67,-61,-48,-49,-50,-51,-49,-46,-47,-48,-48,-47,-45,-46,-46,-46,-46,-45,-46,-45,-46,-49,-55,-60,-64,-67,-69,-70,-71,-71,-71,-72,-73,-74,-75,-75,-76,-77,-77,-77,-78,-78,-78,-78,-77,-77,-77,-77,-77,-77,-77,-78,-78,-78,-78,-79,-79,-78,-78,-77,-77,-76,-76,-76,-77,-78,-79,-81,-82,-84,-85,-86,-85,-84,-83,-83,-82,-82,-82,-83,-83,-83,-84,-85,-86,-87,-88,-89,-90,-90,-90,-91,-92,-93,-94,-95,-96,-96,-97,-97,-97,-97,-98,-99,-99,-100,-101,-101,-102,-102,-102,-103,-104,-105,-106,-107,-108,-109,-110,-111,-112,-113,-113,-114,-114,-115,-116,-116,-117,-116,-117,-115,-117,-116,-116,-116,-117,-120,-120,-124,-126,-126,-129,-130,-130,-129,-130,-131,-129,-129,-130,-129,-130,-129,-131,-132,-139,-135,-136,-139,-133,-139,-141,-138,-137,-136,-135,-136,-137,-137,-137,-138,-137,-137,-137,-137,-138,-141,-139,-142,-142,-142,-142,-143,-145,-144,-144,-146,-145,-147,-147,-147,-148,-150,-149,-150,-152,-154,-154,-155,-155,-157,-158,-157,-160,-158,-164,-163,-176,-179,-175,-173,-173,-173,-174,-171,-172,-170,-172,-175,-176,-175,-174,-175,-177,-175,-175,-179,-181,-178,-178,-180,-181,-181,-183,-182,-182,-183,-184,-184,-186,-186,-192,-194,-194,-194,-194,-194,-196,-196,-198,-194,-193,-192,-194,-198,-195,-195,-196,-198,-199,-200,-198,-200,-202,-205,-205,-206,-207,-209,-210,-211,-211,-212,-212,-213,-213,-214,-215,-217,-218,-218,-217,-220,-221,-219,-219,-217,-218,-222,-228,-227,-224,-225,-226,-224,-229,-229,-231,-231,-233,-235,-235,-235,-237,-237,-238,-236,-238,-238,-239,-239,-241,-242,-242,-243,-244,-245,-244,-246,-247,-247,-248,-253,-251,-251,-253,-253,-256,-257,-259,-259,-259,-261,-263,-264,-265,-264,-264,-264,-269,-270,-271,-272,-272,-272,-271,-272,-274,-276,-278,-281,-284,-277,-280,-281,-288,-285,-285,-287,-288,-290,-293,-291,-295,-293,-294,-294,-295,-296,-293,-297,-299,-301,-301,-300,-305,-306,-306,-316
72.9145833333333,-62,-61,-61,-61,-61,-60,-60,-60,-60,-60,-60,-60,-59,-59,-58,-57,-57,-57,-57,-58,-61,-61,-61,-61,-61,-62,-61,-62,-61,-59,-58,-59,-63,-63,-63,-62,-62,-62,-62,-62,-62,-62,-62,-63,-64,-65,-65,-62,-63,-62,-63,-64,-64,-63,-61,-62,-62,-61,-63,-65,-67,-66,-67,-67,-66,-65,-65,-66,-66,-67,-67,-67,-67,-68,-68,-68,-68,-68,-68,-68,-68,-68,-68,-69,-69,-69,-69,-68,-69,-70,-69,-55,-47,-46,-46,-46,-46,-54,-62,-65,-65,-61,-54,-53,-55,-49,-46,-43,-43,-44,-44,-43,-43,-44,-45,-46,-46,-46,-46,-46,-47,-50,-55,-61,-66,-69,-71,-72,-72,-73,-73,-74,-74,-75,-76,-77,-78,-78,-79,-79,-79,-79,-79,-79,-79,-79,-79,-79,-79,-79,-80,-80,-80,-81,-81,-82,-82,-82,-81,-80,-80,-79,-79,-79,-79,-81,-82,-82,-83,-85,-85,-86,-85,-84,-84,-83,-83,-83,-83,-83,-83,-83,-84,-85,-86,-87,-88,-89,-90,-91,-91,-92,-93,-94,-95,-96,-97,-98,-98,-98,-99,-99,-100,-100,-101,-102,-103,-103,-104,-104,-105,-106,-107,-108,-109,-110,-111,-112,-113,-114,-115,-116,-117,-117,-118,-119,-119,-120,-120,-121,-121,-120,-121,-118,-119,-120,-120,-122,-122,-123,-127,-125,-131,-134,-134,-133,-133,-133,-131,-132,-133,-131,-131,-134,-135,-135,-133,-133,-133,-135,-136,-135,-140,-135,-136,-136,-136,-137,-139,-138,-139,-139,-140,-140,-140,-141,-140,-142,-143,-142,-144,-146,-145,-145,-146,-146,-147,-148,-149,-148,-152,-152,-151,-152,-152,-153,-155,-155,-156,-156,-159,-159,-159,-161,-161,-162,-164,-164,-169,-165,-177,-175,-174,-175,-174,-179,-178,-179,-178,-180,-180,-182,-181,-179,-180,-180,-177,-183,-177,-184,-183,-183,-180,-182,-185,-185,-184,-184,-186,-188,-188,-190,-194,-195,-197,-199,-200,-201,-202,-202,-201,-202,-203,-196,-199,-199,-201,-199,-201,-202,-202,-203,-202,-204,-207,-209,-210,-211,-213,-215,-217,-218,-218,-220,-221,-220,-221,-221,-223,-224,-225,-224,-224,-227,-228,-225,-226,-225,-226,-229,-231,-231,-230,-229,-232,-233,-229,-231,-231,-232,-234,-235,-238,-240,-242,-241,-242,-242,-241,-243,-245,-245,-245,-246,-245,-245,-245,-245,-249,-253,-254,-256,-255,-254,-254,-255,-256,-257,-259,-261,-263,-264,-264,-266,-265,-267,-269,-268,-267,-267,-268,-268,-273,-275,-276,-276,-276,-275,-276,-277,-279,-281,-282,-283,-286,-282,-291,-284,-283,-283,-286,-291,-291,-290,-296,-294,-290,-296,-304,-296,-296,-305,-308,-311,-314,-313,-313,-314,-314,-316
72.91875,-63,-63,-63,-62,-62,-62,-61,-61,-61,-61,-61,-61,-61,-60,-59,-59,-58,-58,-59,-60,-61,-62,-62,-62,-62,-62,-62,-63,-64,-61,-60,-59,-60,-59,-59,-64,-62,-63,-63,-63,-63,-63,-63,-63,-64,-64,-66,-66,-68,-64,-64,-64,-64,-65,-66,-65,-63,-63,-68,-67,-68,-67,-67,-65,-65,-65,-66,-66,-67,-67,-68,-68,-68,-69,-69,-69,-69,-69,-69,-69,-69,-70,-70,-70,-71,-71,-71,-72,-75,-79,-76,-63,-54,-49,-46,-45,-45,-48,-55,-61,-64,-64,-61,-59,-57,-51,-47,-43,-43,-43,-43,-44,-44,-43,-44,-46,-47,-47,-47,-47,-49,-52,-58,-63,-68,-71,-73,-74,-74,-74,-75,-75,-76,-77,-78,-78,-79,-80,-80,-81,-81,-81,-81,-81,-81,-81,-81,-81,-81,-81,-82,-82,-83,-83,-84,-85,-85,-85,-85,-84,-83,-82,-82,-82,-83,-84,-84,-85,-85,-85,-85,-85,-84,-83,-83,-83,-83,-84,-84,-83,-83,-83,-84,-85,-86,-87,-88,-89,-90,-91,-91,-92,-93,-94,-96,-97,-98,-99,-99,-100,-100,-101,-101,-102,-103,-104,-105,-106,-106,-107,-108,-109,-110,-111,-112,-113,-114,-116,-117,-117,-118,-119,-120,-120,-121,-122,-123,-123,-124,-124,-125,-125,-125,-124,-125,-125,-125,-124,-125,-125,-127,-129,-136,-137,-136,-137,-136,-135,-134,-133,-132,-134,-134,-136,-134,-137,-134,-135,-137,-135,-135,-134,-136,-136,-138,-137,-136,-138,-140,-138,-143,-140,-142,-143,-147,-144,-143,-143,-144,-143,-146,-150,-149,-149,-149,-148,-148,-150,-152,-152,-155,-154,-152,-153,-154,-156,-157,-158,-159,-159,-161,-162,-161,-163,-163,-165,-165,-165,-166,-167,-175,-176,-176,-177,-174,-171,-172,-176,-180,-181,-182,-185,-185,-185,-181,-180,-181,-184,-188,-188,-189,-187,-188,-187,-188,-188,-188,-188,-190,-192,-194,-196,-198,-199,-200,-201,-200,-202,-203,-205,-205,-205,-205,-204,-206,-203,-205,-204,-202,-205,-206,-206,-207,-209,-212,-214,-215,-216,-219,-222,-224,-223,-223,-226,-227,-225,-226,-225,-226,-227,-226,-225,-226,-226,-228,-229,-229,-229,-228,-231,-232,-232,-232,-232,-233,-232,-231,-232,-234,-234,-235,-239,-238,-240,-241,-242,-242,-243,-246,-247,-248,-248,-250,-252,-252,-251,-251,-251,-253,-252,-253,-254,-258,-260,-261,-261,-260,-262,-261,-264,-264,-264,-264,-266,-266,-268,-270,-269,-269,-269,-270,-271,-274,-276,-282,-279,-283,-283,-281,-280,-281,-282,-284,-286,-289,-292,-294,-290,-291,-290,-292,-300,-298,-299,-305,-302,-304,-303,-306,-304,-307,-312,-313,-315,-315,-315,-316,-317,-318,-319
72.9229166666667,-64,-64,-64,-63,-63,-63,-63,-62,-62,-62,-62,-62,-62,-61,-61,-60,-60,-60,-60,-61,-62,-62,-63,-63,-63,-63,-63,-62,-62,-63,-64,-65,-63,-61,-60,-61,-62,-62,-63,-65,-64,-64,-64,-64,-64,-64,-65,-66,-68,-68,-68,-65,-66,-66,-66,-66,-67,-68,-69,-69,-67,-65,-65,-65,-66,-66,-67,-67,-68,-68,-68,-69,-69,-69,-70,-70,-70,-70,-70,-70,-71,-71,-71,-71,-72,-72,-72,-73,-76,-78,-75,-67,-59,-53,-49,-46,-45,-48,-53,-59,-64,-66,-65,-63,-59,-55,-50,-46,-46,-46,-45,-45,-44,-43,-45,-46,-46,-47,-47,-47,-51,-56,-61,-66,-71,-73,-75,-76,-76,-76,-77,-77,-78,-79,-79,-80,-81,-81,-82,-82,-82,-82,-83,-83,-83,-83,-83,-83,-83,-84,-84,-85,-85,-86,-87,-87,-88,-88,-88,-87,-86,-85,-85,-85,-86,-86,-87,-87,-86,-86,-85,-84,-83,-83,-83,-83,-83,-84,-84,-83,-83,-83,-84,-85,-86,-87,-89,-90,-90,-91,-91,-92,-93,-95,-96,-98,-99,-100,-100,-101,-102,-102,-103,-104,-105,-106,-107,-108,-109,-110,-111,-112,-113,-114,-115,-117,-118,-119,-120,-121,-122,-122,-123,-124,-124,-125,-126,-127,-127,-128,-128,-129,-129,-129,-130,-130,-131,-133,-130,-132,-132,-131,-133,-134,-135,-138,-138,-137,-136,-134,-133,-134,-137,-136,-135,-134,-134,-135,-139,-139,-139,-138,-137,-138,-140,-141,-140,-141,-142,-143,-143,-142,-147,-148,-148,-145,-144,-145,-145,-145,-148,-151,-152,-152,-152,-151,-151,-153,-154,-156,-157,-156,-155,-156,-157,-159,-160,-161,-162,-162,-163,-164,-163,-165,-167,-169,-169,-167,-173,-173,-173,-177,-178,-180,-178,-177,-180,-183,-186,-182,-182,-181,-182,-182,-182,-181,-189,-187,-191,-191,-190,-191,-192,-192,-192,-193,-193,-194,-195,-197,-199,-201,-203,-204,-205,-205,-205,-205,-206,-207,-207,-210,-211,-211,-212,-212,-214,-210,-209,-213,-211,-209,-212,-216,-217,-219,-220,-220,-222,-226,-227,-224,-224,-227,-229,-225,-227,-223,-225,-227,-229,-228,-227,-228,-232,-228,-233,-233,-230,-232,-235,-236,-236,-236,-236,-236,-237,-237,-238,-239,-241,-242,-243,-243,-243,-243,-245,-247,-251,-250,-250,-251,-252,-252,-252,-254,-254,-259,-259,-258,-259,-257,-260,-260,-261,-262,-263,-266,-267,-268,-268,-268,-269,-271,-271,-274,-273,-277,-278,-276,-278,-279,-280,-282,-284,-286,-282,-284,-289,-290,-287,-289,-289,-289,-290,-291,-292,-295,-298,-300,-304,-310,-310,-310,-313,-309,-316,-310,-310,-311,-312,-313,-314,-315,-317,-318,-319,-319,-321,-321
72.9270833333333,-66,-65,-65,-65,-64,-64,-64,-63,-63,-63,-63,-63,-63,-62,-62,-62,-61,-61,-62,-62,-63,-63,-63,-64,-64,-64,-63,-63,-63,-64,-64,-65,-65,-64,-62,-62,-63,-63,-63,-65,-65,-65,-66,-65,-65,-65,-65,-66,-67,-69,-69,-69,-72,-67,-68,-67,-67,-67,-68,-70,-69,-68,-67,-66,-67,-67,-68,-69,-69,-70,-71,-70,-70,-70,-70,-71,-71,-71,-71,-71,-72,-72,-72,-71,-71,-71,-72,-73,-75,-75,-73,-69,-64,-59,-54,-51,-50,-52,-56,-60,-64,-66,-66,-64,-62,-58,-55,-52,-51,-50,-50,-50,-49,-49,-50,-51,-52,-52,-53,-54,-57,-61,-66,-71,-74,-76,-77,-77,-78,-78,-78,-79,-79,-80,-81,-82,-83,-83,-84,-84,-84,-84,-84,-84,-84,-85,-85,-85,-85,-86,-86,-87,-87,-88,-89,-90,-91,-91,-91,-90,-89,-88,-88,-88,-89,-89,-89,-89,-88,-88,-86,-85,-84,-84,-84,-84,-84,-85,-84,-83,-82,-82,-83,-84,-86,-88,-89,-90,-90,-91,-91,-92,-93,-94,-96,-97,-99,-100,-101,-102,-103,-104,-105,-106,-107,-108,-110,-111,-112,-113,-114,-115,-116,-117,-119,-120,-121,-122,-123,-124,-125,-125,-126,-127,-127,-128,-129,-130,-130,-131,-132,-132,-132,-133,-134,-134,-135,-135,-132,-136,-135,-135,-134,-134,-135,-137,-137,-139,-142,-141,-136,-134,-136,-133,-135,-138,-136,-138,-137,-139,-142,-140,-142,-142,-141,-142,-142,-143,-144,-145,-145,-147,-145,-148,-149,-147,-147,-146,-147,-147,-149,-151,-154,-155,-155,-155,-156,-157,-158,-158,-159,-159,-158,-159,-160,-162,-163,-164,-165,-166,-166,-167,-167,-169,-171,-173,-175,-176,-173,-179,-173,-179,-180,-183,-184,-186,-190,-188,-188,-188,-189,-195,-193,-191,-192,-194,-191,-196,-195,-194,-195,-195,-195,-196,-197,-198,-198,-199,-201,-202,-205,-207,-209,-210,-210,-211,-210,-211,-211,-211,-212,-217,-219,-223,-226,-222,-219,-219,-219,-220,-217,-213,-215,-221,-221,-222,-222,-223,-224,-223,-222,-223,-225,-227,-227,-226,-227,-228,-230,-230,-229,-229,-230,-231,-232,-230,-229,-227,-226,-233,-237,-239,-240,-238,-240,-240,-242,-242,-242,-242,-242,-243,-243,-244,-245,-245,-246,-257,-249,-251,-252,-254,-255,-255,-257,-259,-261,-261,-264,-265,-264,-264,-264,-265,-266,-267,-269,-269,-269,-270,-269,-271,-273,-275,-276,-278,-281,-283,-282,-281,-281,-281,-281,-281,-282,-283,-289,-295,-289,-295,-291,-294,-293,-293,-293,-293,-294,-297,-298,-299,-301,-305,-313,-312,-309,-308,-310,-312,-312,-313,-313,-315,-316,-317,-317,-318,-319,-320,-322,-321
72.93125,-67,-67,-66,-66,-65,-65,-65,-64,-64,-64,-64,-64,-64,-64,-63,-63,-63,-63,-63,-64,-64,-64,-64,-64,-64,-64,-64,-64,-64,-65,-65,-66,-65,-66,-67,-66,-66,-65,-64,-65,-67,-67,-67,-68,-67,-66,-66,-67,-68,-69,-70,-71,-71,-71,-70,-68,-69,-69,-68,-69,-70,-71,-70,-69,-69,-69,-69,-70,-70,-70,-72,-71,-71,-71,-71,-71,-71,-71,-71,-71,-72,-72,-72,-71,-70,-70,-71,-71,-72,-73,-72,-70,-68,-64,-60,-57,-56,-57,-60,-63,-66,-67,-67,-66,-64,-62,-59,-58,-57,-57,-57,-57,-56,-57,-58,-59,-60,-61,-62,-63,-65,-68,-71,-74,-77,-78,-79,-79,-79,-79,-80,-80,-81,-82,-83,-83,-84,-85,-86,-86,-86,-86,-86,-86,-86,-86,-86,-87,-87,-88,-88,-89,-90,-90,-91,-92,-93,-93,-93,-92,-92,-91,-91,-91,-91,-92,-92,-91,-91,-90,-89,-88,-87,-87,-87,-87,-87,-86,-85,-83,-82,-82,-84,-85,-87,-88,-90,-90,-90,-91,-91,-92,-93,-94,-95,-97,-98,-100,-101,-103,-104,-106,-107,-108,-109,-111,-112,-113,-115,-116,-117,-118,-119,-121,-122,-123,-124,-125,-126,-127,-128,-129,-129,-130,-130,-131,-132,-133,-133,-134,-135,-135,-136,-136,-137,-137,-138,-137,-136,-137,-137,-138,-136,-136,-137,-137,-136,-139,-145,-146,-136,-132,-135,-136,-138,-140,-139,-140,-141,-139,-140,-142,-143,-145,-145,-143,-144,-145,-145,-147,-147,-148,-149,-149,-149,-149,-150,-150,-151,-151,-149,-153,-155,-158,-158,-159,-159,-160,-161,-162,-162,-162,-162,-163,-164,-165,-166,-167,-168,-169,-170,-171,-172,-173,-175,-178,-180,-181,-180,-180,-180,-179,-180,-184,-189,-189,-190,-192,-193,-194,-193,-195,-196,-197,-198,-199,-196,-200,-198,-197,-198,-198,-199,-200,-202,-203,-203,-204,-205,-207,-210,-214,-214,-215,-216,-216,-216,-217,-217,-217,-218,-219,-218,-220,-223,-226,-228,-226,-226,-225,-223,-225,-218,-219,-225,-220,-223,-224,-225,-227,-226,-227,-227,-228,-228,-231,-232,-232,-233,-232,-232,-232,-233,-233,-233,-229,-225,-223,-227,-236,-240,-242,-243,-240,-242,-243,-244,-245,-245,-246,-246,-246,-246,-246,-246,-247,-245,-246,-246,-251,-254,-258,-260,-259,-261,-262,-263,-266,-265,-266,-267,-269,-267,-271,-273,-277,-275,-275,-273,-273,-273,-273,-274,-277,-279,-281,-284,-284,-285,-284,-284,-286,-285,-285,-285,-287,-291,-297,-295,-293,-290,-297,-295,-296,-296,-297,-296,-297,-301,-303,-305,-308,-311,-312,-313,-313,-314,-315,-317,-317,-316,-316,-316,-317,-318,-322,-322,-323,-325,-325
72.9354166666667,-69,-68,-68,-67,-67,-66,-66,-65,-65,-65,-65,-65,-65,-65,-65,-65,-65,-64,-65,-65,-65,-65,-65,-65,-65,-65,-65,-65,-65,-66,-66,-67,-68,-68,-67,-68,-69,-70,-66,-65,-66,-68,-68,-68,-68,-69,-68,-67,-67,-68,-69,-69,-70,-71,-72,-74,-73,-73,-74,-70,-69,-70,-70,-72,-71,-70,-69,-70,-70,-70,-71,-71,-70,-71,-71,-71,-71,-71,-71,-71,-71,-71,-71,-71,-70,-70,-70,-71,-71,-72,-72,-71,-70,-67,-65,-63,-62,-63,-64,-66,-67,-68,-68,-67,-66,-65,-64,-63,-63,-63,-64,-64,-64,-65,-66,-68,-70,-72,-73,-73,-73,-74,-75,-77,-79,-79,-80,-80,-80,-81,-81,-82,-83,-83,-84,-85,-86,-87,-87,-88,-87,-87,-87,-87,-88,-88,-88,-89,-89,-90,-90,-91,-92,-92,-93,-94,-95,-95,-95,-95,-94,-94,-94,-94,-94,-94,-94,-94,-94,-93,-92,-91,-91,-90,-90,-90,-89,-88,-87,-86,-85,-85,-86,-87,-89,-90,-90,-90,-90,-90,-91,-92,-94,-94,-95,-97,-99,-101,-102,-104,-106,-107,-109,-110,-112,-113,-115,-116,-117,-119,-120,-121,-123,-124,-125,-126,-128,-129,-130,-131,-131,-132,-132,-133,-133,-134,-135,-135,-136,-137,-138,-138,-139,-140,-140,-140,-140,-140,-140,-140,-140,-141,-141,-140,-139,-140,-140,-141,-140,-141,-143,-137,-138,-139,-138,-139,-139,-142,-144,-144,-141,-144,-144,-145,-147,-147,-147,-148,-148,-149,-148,-150,-152,-153,-151,-151,-154,-154,-155,-158,-153,-158,-162,-161,-160,-161,-163,-164,-165,-166,-166,-165,-166,-167,-168,-169,-170,-171,-172,-173,-174,-175,-177,-178,-180,-183,-185,-186,-186,-186,-186,-185,-187,-187,-190,-192,-194,-194,-196,-198,-199,-199,-200,-201,-201,-202,-203,-202,-203,-200,-201,-201,-201,-204,-207,-208,-208,-209,-210,-211,-215,-219,-217,-217,-219,-220,-220,-220,-220,-219,-220,-220,-221,-221,-223,-225,-225,-229,-232,-229,-228,-227,-226,-225,-223,-221,-223,-223,-230,-230,-230,-230,-230,-231,-232,-234,-235,-236,-236,-236,-236,-237,-237,-237,-237,-236,-234,-233,-235,-241,-242,-242,-242,-243,-245,-246,-246,-247,-248,-248,-248,-247,-248,-248,-249,-249,-246,-246,-248,-253,-256,-258,-259,-261,-262,-265,-267,-270,-269,-270,-271,-271,-271,-271,-272,-274,-277,-277,-281,-281,-280,-282,-281,-281,-283,-283,-283,-282,-286,-286,-286,-287,-289,-291,-292,-294,-295,-299,-302,-298,-297,-297,-297,-301,-304,-305,-306,-306,-306,-307,-309,-311,-312,-314,-315,-315,-315,-315,-316,-317,-319,-318,-322,-325,-326,-326,-327,-328,-329,-330
72.9395833333333,-70,-70,-69,-68,-68,-67,-66,-66,-66,-66,-66,-66,-66,-66,-66,-66,-66,-66,-66,-66,-66,-66,-66,-66,-66,-66,-66,-66,-66,-67,-67,-68,-68,-69,-70,-68,-69,-69,-70,-68,-68,-67,-68,-67,-71,-71,-71,-71,-70,-69,-69,-69,-69,-70,-72,-72,-73,-72,-73,-73,-72,-71,-71,-72,-73,-71,-69,-70,-69,-69,-69,-69,-70,-70,-70,-71,-71,-71,-71,-71,-71,-71,-71,-71,-71,-71,-71,-72,-72,-72,-72,-72,-71,-69,-68,-68,-68,-69,-69,-69,-69,-70,-70,-69,-69,-68,-68,-68,-69,-70,-71,-72,-72,-73,-75,-77,-78,-80,-80,-79,-77,-79,-77,-78,-79,-80,-80,-81,-81,-82,-83,-83,-84,-85,-85,-86,-87,-88,-89,-89,-89,-89,-89,-89,-89,-90,-90,-90,-91,-91,-92,-93,-94,-94,-95,-96,-97,-97,-97,-97,-97,-97,-97,-97,-97,-97,-97,-97,-97,-97,-96,-95,-95,-94,-94,-93,-93,-92,-91,-90,-89,-89,-90,-91,-92,-92,-92,-91,-91,-91,-92,-93,-94,-95,-96,-99,-101,-103,-104,-106,-108,-109,-111,-112,-114,-116,-117,-119,-120,-122,-123,-125,-126,-127,-128,-130,-131,-132,-133,-134,-134,-134,-135,-135,-136,-137,-137,-138,-139,-140,-141,-141,-142,-143,-143,-143,-144,-143,-143,-143,-143,-144,-143,-142,-141,-142,-141,-142,-142,-142,-143,-144,-146,-146,-141,-142,-141,-144,-148,-149,-148,-147,-147,-147,-148,-149,-149,-149,-151,-153,-153,-152,-155,-156,-157,-157,-158,-157,-157,-159,-168,-158,-167,-167,-164,-164,-165,-168,-169,-170,-170,-169,-170,-171,-172,-173,-174,-174,-175,-176,-178,-179,-181,-183,-186,-188,-190,-191,-191,-192,-191,-190,-191,-192,-192,-193,-194,-199,-199,-201,-202,-203,-205,-205,-206,-206,-206,-208,-211,-204,-206,-208,-208,-211,-212,-213,-213,-213,-213,-214,-217,-219,-217,-217,-219,-220,-220,-220,-219,-219,-220,-220,-222,-222,-224,-232,-226,-226,-227,-233,-235,-233,-232,-230,-231,-233,-237,-228,-232,-236,-235,-235,-236,-236,-237,-238,-239,-239,-239,-239,-240,-241,-242,-242,-242,-243,-244,-245,-244,-244,-245,-245,-245,-246,-248,-248,-248,-249,-249,-248,-248,-249,-251,-252,-253,-252,-251,-251,-253,-256,-259,-261,-262,-264,-264,-264,-267,-270,-270,-273,-274,-275,-276,-275,-277,-277,-278,-279,-279,-288,-284,-284,-287,-288,-288,-287,-287,-288,-290,-288,-288,-289,-292,-292,-292,-293,-294,-300,-303,-304,-305,-306,-306,-305,-305,-308,-309,-309,-311,-312,-313,-313,-314,-315,-316,-318,-322,-323,-326,-321,-322,-321,-325,-330,-331,-332,-332,-333,-334,-336
72.94375,-72,-71,-71,-70,-69,-68,-67,-67,-67,-67,-67,-67,-68,-68,-68,-67,-67,-67,-67,-67,-66,-66,-66,-66,-67,-67,-67,-67,-67,-67,-67,-68,-68,-68,-69,-70,-71,-69,-69,-70,-72,-75,-74,-73,-74,-73,-73,-73,-71,-71,-71,-71,-71,-71,-71,-72,-70,-71,-71,-71,-71,-72,-72,-69,-68,-68,-69,-70,-69,-70,-69,-69,-70,-70,-71,-71,-71,-72,-72,-72,-71,-71,-71,-72,-72,-73,-73,-74,-74,-74,-73,-73,-72,-71,-71,-72,-74,-75,-74,-73,-72,-72,-72,-71,-71,-71,-71,-71,-73,-75,-75,-76,-76,-79,-80,-82,-81,-79,-78,-77,-77,-78,-78,-78,-78,-80,-81,-82,-82,-83,-84,-85,-86,-86,-86,-87,-88,-89,-89,-90,-90,-90,-90,-90,-91,-91,-92,-92,-93,-93,-94,-95,-96,-96,-97,-98,-99,-99,-100,-100,-100,-100,-100,-100,-100,-101,-101,-101,-100,-100,-100,-99,-99,-98,-98,-97,-97,-96,-95,-94,-94,-94,-94,-95,-95,-95,-94,-94,-94,-94,-94,-95,-96,-97,-100,-103,-105,-105,-106,-109,-111,-112,-113,-114,-116,-118,-120,-122,-123,-125,-127,-128,-129,-130,-131,-133,-135,-136,-137,-137,-137,-137,-138,-138,-138,-139,-140,-141,-142,-143,-143,-144,-145,-146,-146,-147,-147,-147,-147,-147,-147,-147,-146,-145,-144,-145,-145,-144,-144,-146,-146,-146,-146,-147,-150,-155,-153,-152,-151,-154,-153,-152,-150,-150,-151,-153,-156,-155,-155,-156,-157,-158,-157,-159,-161,-161,-163,-162,-162,-166,-170,-165,-166,-168,-166,-170,-169,-173,-174,-173,-173,-173,-173,-175,-177,-178,-178,-178,-179,-180,-182,-184,-186,-188,-190,-193,-196,-197,-198,-198,-198,-197,-197,-198,-197,-196,-197,-197,-200,-199,-205,-205,-208,-208,-210,-211,-210,-211,-212,-213,-212,-213,-211,-217,-217,-216,-217,-217,-217,-217,-219,-220,-221,-221,-221,-221,-223,-224,-222,-224,-224,-225,-225,-226,-228,-232,-229,-231,-232,-232,-232,-236,-239,-239,-235,-236,-236,-237,-240,-241,-241,-241,-241,-242,-242,-243,-243,-243,-243,-243,-243,-245,-246,-246,-246,-245,-246,-247,-247,-248,-249,-249,-249,-249,-249,-249,-249,-248,-249,-250,-251,-252,-255,-256,-257,-257,-257,-257,-259,-262,-264,-266,-267,-268,-268,-269,-271,-273,-274,-272,-274,-276,-277,-278,-280,-279,-279,-281,-283,-283,-284,-287,-287,-290,-290,-290,-290,-291,-292,-292,-289,-290,-293,-294,-296,-307,-305,-305,-306,-305,-305,-305,-306,-307,-309,-310,-311,-312,-313,-315,-316,-316,-317,-318,-318,-320,-323,-325,-326,-328,-329,-326,-329,-330,-335,-338,-338,-338,-340,-341
72.9479166666667,-74,-73,-72,-71,-70,-69,-68,-67,-68,-68,-68,-69,-69,-69,-69,-69,-68,-68,-68,-67,-67,-67,-67,-67,-67,-67,-67,-67,-67,-67,-67,-67,-67,-67,-67,-69,-71,-71,-73,-73,-72,-71,-70,-70,-68,-70,-68,-72,-71,-72,-74,-73,-70,-69,-69,-69,-70,-69,-69,-69,-71,-72,-73,-74,-70,-69,-69,-69,-71,-72,-72,-69,-72,-72,-71,-72,-72,-72,-72,-72,-72,-72,-72,-72,-73,-74,-76,-76,-76,-76,-75,-74,-74,-74,-75,-77,-78,-80,-79,-78,-76,-75,-75,-74,-74,-75,-75,-74,-76,-76,-76,-76,-77,-81,-81,-81,-80,-80,-80,-80,-81,-80,-80,-80,-80,-81,-82,-83,-83,-84,-85,-86,-87,-87,-87,-88,-88,-89,-90,-90,-90,-91,-91,-92,-92,-93,-93,-94,-94,-95,-96,-97,-98,-99,-100,-101,-101,-102,-102,-102,-103,-103,-103,-103,-104,-104,-104,-104,-104,-104,-104,-103,-103,-102,-102,-101,-101,-100,-99,-99,-99,-98,-99,-99,-99,-98,-98,-98,-98,-98,-98,-99,-100,-102,-105,-108,-110,-110,-111,-113,-114,-115,-115,-117,-119,-121,-123,-125,-125,-128,-130,-132,-132,-133,-134,-136,-139,-140,-141,-141,-140,-140,-140,-140,-141,-141,-142,-143,-144,-145,-146,-147,-148,-149,-150,-150,-150,-151,-151,-151,-151,-151,-150,-149,-149,-149,-149,-149,-150,-147,-149,-151,-153,-152,-153,-154,-155,-156,-159,-159,-158,-157,-155,-156,-155,-156,-157,-159,-158,-160,-159,-161,-161,-167,-167,-164,-166,-167,-168,-170,-171,-169,-168,-169,-171,-173,-175,-175,-177,-175,-178,-177,-177,-180,-182,-182,-183,-182,-183,-184,-185,-188,-191,-193,-195,-198,-201,-203,-203,-203,-203,-204,-204,-205,-205,-204,-203,-200,-204,-207,-208,-207,-203,-211,-214,-214,-215,-217,-218,-217,-217,-217,-219,-221,-219,-220,-220,-221,-223,-223,-226,-227,-228,-227,-227,-227,-228,-228,-228,-229,-229,-230,-230,-231,-232,-233,-233,-234,-234,-235,-236,-238,-239,-241,-244,-242,-240,-240,-242,-243,-245,-246,-247,-248,-248,-248,-247,-247,-247,-248,-246,-248,-249,-249,-248,-248,-249,-249,-250,-250,-250,-250,-250,-249,-247,-249,-251,-252,-254,-255,-256,-258,-260,-261,-262,-262,-263,-264,-266,-268,-270,-272,-273,-274,-274,-275,-276,-277,-277,-276,-277,-277,-280,-280,-281,-281,-282,-283,-284,-286,-288,-287,-288,-290,-292,-291,-291,-291,-293,-298,-297,-295,-302,-303,-303,-303,-305,-305,-306,-306,-305,-306,-308,-311,-313,-313,-313,-317,-313,-315,-323,-325,-325,-324,-323,-324,-324,-327,-330,-334,-335,-336,-337,-342,-342,-344,-343,-343,-345,-347
72.9520833333333,-75,-75,-74,-73,-71,-70,-69,-68,-69,-69,-70,-70,-70,-70,-70,-70,-70,-69,-69,-68,-68,-68,-68,-68,-68,-68,-68,-67,-67,-67,-68,-67,-66,-67,-68,-70,-71,-71,-72,-70,-69,-69,-68,-69,-70,-70,-72,-71,-70,-71,-69,-71,-71,-69,-69,-69,-70,-71,-71,-71,-71,-72,-73,-74,-73,-75,-71,-71,-71,-71,-72,-73,-73,-73,-73,-73,-73,-73,-73,-73,-72,-72,-72,-73,-73,-74,-78,-78,-78,-78,-77,-76,-76,-77,-79,-80,-82,-83,-83,-82,-81,-79,-78,-78,-78,-79,-79,-80,-80,-81,-82,-82,-84,-83,-82,-81,-82,-83,-83,-83,-82,-82,-83,-83,-82,-82,-83,-84,-84,-85,-86,-88,-88,-88,-88,-88,-89,-89,-90,-91,-91,-92,-92,-93,-94,-94,-95,-95,-96,-97,-97,-98,-99,-101,-102,-103,-104,-105,-105,-105,-106,-106,-106,-107,-107,-107,-108,-108,-108,-108,-107,-107,-107,-107,-106,-106,-105,-105,-104,-104,-103,-103,-103,-103,-103,-103,-103,-103,-103,-103,-103,-104,-105,-107,-110,-113,-115,-116,-118,-119,-119,-119,-120,-121,-123,-125,-126,-127,-128,-131,-133,-136,-135,-135,-136,-139,-142,-144,-145,-144,-142,-142,-142,-143,-143,-143,-144,-145,-146,-148,-149,-150,-151,-152,-153,-153,-154,-154,-154,-155,-155,-155,-155,-154,-154,-154,-154,-154,-153,-153,-154,-153,-153,-154,-155,-156,-157,-158,-163,-164,-165,-164,-162,-162,-161,-160,-162,-165,-165,-164,-166,-165,-167,-167,-169,-167,-170,-172,-174,-173,-174,-173,-172,-173,-174,-174,-176,-177,-179,-181,-182,-185,-180,-185,-187,-187,-187,-188,-187,-187,-189,-194,-195,-197,-199,-202,-206,-209,-209,-209,-210,-210,-210,-211,-213,-213,-214,-215,-216,-216,-216,-215,-212,-215,-212,-217,-217,-219,-220,-222,-226,-225,-224,-223,-224,-225,-227,-227,-228,-229,-230,-233,-234,-235,-234,-233,-233,-234,-234,-235,-235,-236,-236,-236,-237,-238,-238,-237,-237,-237,-237,-241,-242,-242,-244,-245,-245,-245,-245,-247,-247,-248,-250,-251,-252,-249,-250,-250,-249,-250,-251,-251,-251,-251,-252,-251,-251,-251,-250,-249,-250,-256,-255,-252,-251,-253,-256,-258,-260,-261,-263,-264,-266,-267,-268,-269,-269,-271,-272,-274,-277,-278,-280,-281,-281,-282,-282,-283,-283,-282,-282,-282,-283,-282,-285,-288,-289,-286,-287,-288,-293,-291,-291,-292,-294,-295,-298,-299,-300,-299,-301,-302,-302,-303,-305,-305,-305,-306,-308,-308,-309,-309,-308,-311,-313,-316,-318,-320,-321,-322,-324,-324,-329,-329,-329,-329,-330,-333,-333,-334,-336,-338,-341,-344,-346,-347,-346,-347,-350,-353
72.95625,-77,-76,-76,-75,-74,-72,-71,-70,-71,-71,-71,-72,-72,-72,-72,-71,-71,-71,-71,-70,-69,-69,-69,-69,-69,-69,-69,-69,-68,-69,-70,-70,-68,-72,-73,-73,-73,-72,-69,-71,-71,-70,-71,-71,-71,-71,-71,-72,-74,-75,-72,-72,-72,-72,-70,-72,-72,-72,-72,-72,-72,-74,-73,-73,-74,-75,-75,-76,-73,-73,-72,-73,-73,-74,-76,-74,-74,-74,-75,-74,-73,-72,-73,-73,-74,-76,-77,-78,-78,-78,-78,-77,-78,-79,-81,-83,-85,-86,-87,-86,-85,-83,-82,-82,-82,-83,-84,-85,-85,-86,-86,-86,-84,-84,-84,-85,-84,-86,-85,-85,-85,-85,-85,-83,-83,-83,-84,-85,-86,-87,-87,-88,-88,-88,-88,-88,-89,-90,-91,-91,-92,-93,-94,-95,-96,-96,-97,-97,-98,-99,-99,-100,-101,-103,-104,-106,-107,-107,-108,-108,-109,-109,-110,-110,-111,-111,-111,-112,-112,-112,-112,-111,-111,-111,-110,-110,-109,-109,-109,-108,-108,-108,-108,-108,-108,-108,-108,-108,-108,-108,-108,-109,-111,-112,-115,-118,-120,-122,-123,-124,-124,-124,-124,-125,-127,-128,-129,-131,-131,-133,-136,-138,-137,-136,-138,-141,-145,-148,-147,-145,-143,-143,-144,-144,-145,-145,-146,-147,-149,-150,-151,-153,-154,-155,-156,-157,-157,-158,-158,-158,-159,-159,-159,-159,-159,-159,-158,-158,-158,-158,-160,-160,-152,-160,-161,-164,-164,-163,-164,-165,-170,-171,-171,-171,-171,-171,-172,-173,-173,-173,-169,-170,-169,-171,-172,-174,-174,-176,-179,-180,-177,-180,-178,-177,-182,-186,-184,-185,-185,-185,-185,-187,-187,-190,-190,-190,-192,-196,-194,-193,-194,-200,-201,-199,-203,-207,-211,-214,-213,-212,-213,-214,-214,-215,-215,-215,-216,-217,-219,-221,-219,-221,-222,-215,-219,-217,-221,-224,-224,-225,-226,-228,-230,-231,-231,-229,-231,-230,-231,-232,-233,-237,-240,-242,-241,-240,-239,-240,-241,-242,-242,-243,-243,-243,-243,-243,-243,-243,-241,-240,-240,-241,-241,-249,-248,-247,-247,-246,-246,-247,-249,-249,-250,-251,-256,-251,-252,-252,-253,-253,-254,-254,-254,-253,-253,-252,-253,-254,-250,-250,-254,-259,-258,-258,-258,-260,-262,-265,-267,-268,-269,-271,-272,-273,-274,-275,-276,-277,-279,-281,-283,-286,-287,-288,-289,-289,-290,-290,-290,-289,-288,-288,-288,-288,-291,-292,-291,-289,-290,-294,-291,-295,-295,-301,-302,-301,-303,-304,-304,-305,-306,-306,-307,-309,-308,-307,-306,-308,-311,-312,-321,-318,-322,-320,-320,-324,-323,-324,-326,-327,-328,-330,-332,-333,-334,-332,-334,-336,-337,-339,-340,-342,-345,-348,-349,-349,-349,-350,-353,-358
72.9604166666667,-77,-77,-78,-78,-76,-75,-75,-74,-74,-74,-74,-74,-74,-74,-74,-73,-73,-73,-72,-70,-73,-72,-72,-71,-71,-69,-71,-72,-71,-71,-73,-74,-75,-74,-75,-74,-74,-74,-72,-72,-72,-73,-74,-74,-74,-72,-72,-73,-74,-75,-75,-74,-74,-74,-74,-74,-74,-73,-73,-73,-73,-73,-74,-73,-74,-74,-75,-76,-77,-78,-77,-74,-74,-75,-75,-76,-78,-78,-77,-77,-76,-76,-74,-73,-75,-78,-78,-78,-77,-77,-78,-78,-81,-82,-84,-85,-86,-88,-88,-88,-87,-86,-85,-84,-84,-85,-86,-87,-87,-86,-85,-85,-85,-85,-85,-88,-87,-86,-86,-86,-86,-87,-87,-85,-85,-86,-86,-87,-88,-88,-89,-89,-89,-88,-88,-89,-90,-91,-92,-93,-94,-94,-95,-96,-98,-98,-98,-99,-100,-101,-102,-102,-104,-105,-107,-109,-110,-111,-111,-111,-112,-113,-113,-114,-114,-115,-115,-115,-115,-116,-116,-115,-115,-115,-115,-114,-114,-113,-113,-113,-113,-113,-113,-113,-113,-113,-113,-113,-113,-113,-114,-115,-116,-118,-120,-122,-124,-126,-128,-129,-129,-129,-129,-130,-130,-131,-133,-134,-134,-135,-137,-140,-139,-138,-138,-142,-147,-150,-149,-147,-141,-142,-145,-146,-147,-147,-148,-149,-150,-152,-154,-156,-157,-158,-159,-160,-160,-161,-162,-162,-163,-163,-164,-164,-164,-164,-163,-163,-162,-162,-163,-162,-158,-158,-166,-164,-167,-169,-169,-170,-171,-171,-174,-178,-177,-179,-184,-182,-180,-177,-174,-176,-176,-173,-177,-178,-177,-182,-180,-181,-182,-185,-183,-182,-188,-190,-191,-193,-192,-190,-191,-195,-196,-191,-196,-195,-198,-202,-204,-204,-206,-205,-207,-203,-206,-212,-214,-214,-213,-212,-213,-215,-218,-218,-217,-218,-219,-219,-221,-223,-223,-224,-223,-224,-221,-221,-222,-223,-224,-227,-229,-229,-231,-233,-236,-238,-237,-236,-234,-234,-235,-239,-244,-246,-247,-244,-243,-245,-247,-248,-249,-250,-249,-249,-248,-248,-248,-247,-246,-245,-245,-244,-244,-248,-248,-250,-254,-255,-255,-255,-253,-254,-256,-255,-257,-258,-259,-264,-255,-255,-255,-255,-254,-253,-252,-254,-257,-257,-254,-256,-259,-263,-264,-265,-265,-267,-270,-272,-274,-275,-277,-278,-279,-279,-280,-281,-282,-283,-285,-288,-290,-293,-295,-296,-296,-297,-297,-298,-298,-296,-295,-294,-295,-298,-299,-300,-299,-300,-306,-305,-305,-304,-303,-303,-304,-305,-308,-309,-309,-309,-310,-310,-310,-311,-311,-310,-313,-318,-320,-323,-327,-330,-330,-326,-329,-331,-333,-333,-333,-333,-335,-336,-337,-339,-341,-340,-342,-342,-342,-345,-347,-349,-349,-349,-352,-355,-356,-358,-361,-362
