-315,-316,-317,-318,-319,-320,-321,-323,-325,-326,-328,-330,-332,-333,-335,-337,-338,-339,-340,-339,-338,-337,-338,-339,-341,-343,-344,-346,-348,-351,-355,-358,-360,-360,-360,-360,-359,-359,-359,-359,-360,-361,-363,-365,-367,-369,-372,-374,-376,-378,-380,-381,-382,-384,-387,-390,-392,-394,-395,-397,-398,-400,-402,-406,-410,-414,-417,-421,-425,-431,-438,-448,-463,-480,-492,-499,-505,-516,-532,-551,-569,-587,-605,-625,-644,-662,-677,-688,-696,-706,-717,-729,-739,-746,-750,-757,-765,-769,-770,-766,-756,-741,-725,-714,-713,-719,-722,-719,-713,-707,-693,-671,-648,-631,-625,-641,-671,-706,-747,-792,-828,-860,-893,-923,-945,-958,-966,-987,-1019,-1051,-1075,-1101,-1131,-1162,-1186,-1206,-1226,-1246,-1263,-1277,-1292,-1309,-1326,-1342,-1357,-1367,-1369,-1367,-1369,-1380,-1397,-1418,-1435,-1451,-1465,-1477,-1485,-1492,-1500,-1505,-1508,-1508,-1503,-1492,-1473,-1445,-1412,-1381,-1351,-1316,-1281,-1246,-1213,-1182,-1160,-1153,-1163,-1181,-1198,-1214,-1230,-1244,-1257,-1269,-1279,-1288,-1297,-1307,-1319,-1333,-1350,-1366,-1378,-1391,-1406,-1423,-1440,-1456,-1473,-1489,-1500,-1511,-1523,-1537,-1550,-1561,-1572,-1581,-1588,-1596,-1607,-1620,-1632,-1642,-1648,-1651,-1652,-1652,-1649,-1644,-1636,-1627,-1617,-1604,-1586,-1565,-1545,-1524,-1501,-1475,-1449,-1420,-1387,-1350,-1314,-1280,-1255,-1239,-1229,-1224,-1227,-1239,-1262,-1291,-1314,-1333,-1356,-1378,-1391,-1397,-1404,-1412,-1430,-1455,-1484,-1506,-1521,-1533,-1540,-1540,-1537,-1536,-1539,-1548,-1566,-1591,-1619,-1645,-1668,-1688,-1707,-1727,-1746,-1761,-1774,-1787,-1800,-1811,-1821,-1830,-1838,-1846,-1854,-1862,-1871,-1879,-1888,-1899,-1908,-1916,-1925,-1934,-1941,-1947,-1951,-1954,-1957,-1960,-1964,-1966,-1969,-1972,-1975,-1976,-1977,-1979,-1981,-1983,-1986,-1989,-1992,-1994,-1994,-1990,-1985,-1980,-1975,-1967,-1961,-1958,-1955,-1952,-1947,-1942,-1937,-1934,-1931,-1926,-1919,-1913,-1910,-1910,-1909,-1910,-1913,-1918,-1923,-1928,-1934,-1941,-1950,-1961,-1974,-1990,-2007,-2025,-2046,-2071,-2094,-2113,-2128,-2144,-2158,-2170,-2181,-2191,-2198,-2205,-2210,-2213,-2215,-2215,-2214,-2212,-2210,-2208,-2203,-2199,-2194,-2190,-2185,-2182,-2178,-2172,-2164,-2157,-2148,-2140,-2130,-2121,-2114,-2111,-2111,-2110,-2109,-2106,-2101,-2092,-2080,-2067,-2058,-2050,-2043,-2040,-2039,-2038,-2035,-2028,-2024,-2022,-2024,-2023,-2019,-2010,-2003,-2000,-2003,-2009,-2012,-2012,-2009,-1997,-1978,-1960,-1947,-1938,-1927,-1903,-1869,-1836,-1811,-1808,-1827,-1861,-1897,-1937,-1978,-2016,-2047,-2077,-2104,-2129,-2152,-2175,-2195,-2212,-2226,-2239,-2251,-2261,-2271,-2278,-2283,-2287,-2292,-2296,-2297,-2296,-2293,-2290,-2287,-2285,-2282,-2280,-2277,-2273,-2266,-2257,-2249,-2242,-2236,-2230,-2225,-2222,-2221,-2220,-2219,-2216,-2211,-2205,-2199,-2192,-2184,-2171,-2150,-2123,-2095,-2070,-2049,-2029,-2012,-1996,-1983,-1971,-1960,-1949,-1939,-1931,-1925,-1923,-1922,-1923,-1926,-1930,-1934,-1940,-1944,-1949,-1952,-1956,-1959,-1962,-1965,-1970,-1975,-1980,-1986,-1992,-1999,-2007,-2015,-2024,-2033,-2045,-2061,-2081,-2105,-2128,-2146,-2161,-2174,-2186,-2198,-2208,-2217,-2224,-2229,-2233,-2238,-2243,-2249,-2255,-2261,-2267,-2272,-2277,-2281,-2285,-2289,-2291,-2294,-2298,-2302,-2310
-320,-321,-323,-324,-325,-326,-328,-329,-330,-331,-333,-334,-336,-338,-339,-341,-343,-344,-345,-344,-343,-342,-343,-344,-345,-346,-348,-349,-351,-354,-358,-361,-363,-364,-365,-365,-365,-365,-365,-365,-366,-367,-369,-371,-373,-375,-378,-380,-383,-386,-388,-390,-392,-392,-394,-397,-399,-402,-404,-405,-406,-407,-409,-413,-417,-421,-426,-431,-435,-438,-442,-446,-455,-472,-489,-498,-506,-520,-538,-557,-578,-601,-624,-649,-674,-697,-715,-728,-742,-755,-768,-781,-792,-798,-802,-804,-806,-808,-809,-804,-795,-788,-785,-785,-790,-796,-795,-787,-776,-762,-741,-720,-699,-678,-662,-665,-684,-722,-769,-816,-855,-887,-917,-949,-976,-999,-1017,-1039,-1069,-1096,-1116,-1135,-1157,-1177,-1196,-1214,-1230,-1243,-1258,-1272,-1286,-1303,-1324,-1343,-1360,-1379,-1397,-1411,-1422,-1431,-1438,-1445,-1452,-1460,-1472,-1487,-1502,-1516,-1527,-1535,-1540,-1542,-1540,-1532,-1515,-1492,-1466,-1435,-1401,-1371,-1345,-1316,-1282,-1247,-1209,-1173,-1155,-1158,-1172,-1190,-1208,-1222,-1237,-1250,-1260,-1269,-1280,-1294,-1307,-1322,-1341,-1359,-1374,-1389,-1407,-1425,-1446,-1470,-1490,-1506,-1517,-1526,-1533,-1545,-1562,-1582,-1599,-1612,-1622,-1629,-1635,-1644,-1653,-1661,-1665,-1667,-1666,-1664,-1659,-1652,-1643,-1633,-1623,-1611,-1596,-1578,-1557,-1533,-1507,-1479,-1445,-1410,-1376,-1344,-1315,-1294,-1283,-1276,-1272,-1267,-1259,-1247,-1236,-1232,-1233,-1240,-1255,-1273,-1291,-1308,-1324,-1341,-1362,-1388,-1410,-1427,-1441,-1452,-1462,-1472,-1482,-1492,-1502,-1517,-1539,-1564,-1591,-1618,-1645,-1667,-1682,-1699,-1719,-1737,-1751,-1767,-1780,-1791,-1802,-1815,-1826,-1835,-1843,-1851,-1858,-1866,-1876,-1885,-1893,-1901,-1911,-1921,-1932,-1943,-1955,-1964,-1972,-1979,-1986,-1992,-1996,-2001,-2004,-2007,-2007,-2008,-2009,-2011,-2012,-2014,-2016,-2020,-2025,-2032,-2035,-2030,-2021,-2013,-2009,-2006,-2004,-2002,-1998,-1991,-1984,-1980,-1976,-1969,-1960,-1950,-1942,-1940,-1942,-1944,-1944,-1940,-1938,-1940,-1945,-1950,-1957,-1965,-1975,-1987,-2002,-2020,-2042,-2065,-2086,-2105,-2121,-2136,-2152,-2167,-2180,-2190,-2199,-2209,-2216,-2221,-2225,-2227,-2228,-2227,-2225,-2223,-2221,-2218,-2214,-2211,-2208,-2205,-2200,-2194,-2188,-2180,-2172,-2163,-2154,-2144,-2139,-2141,-2147,-2150,-2149,-2144,-2135,-2123,-2110,-2100,-2093,-2086,-2078,-2069,-2063,-2062,-2067,-2071,-2073,-2074,-2075,-2076,-2074,-2068,-2060,-2049,-2037,-2031,-2032,-2035,-2035,-2032,-2027,-2015,-1995,-1972,-1944,-1914,-1888,-1864,-1838,-1817,-1810,-1823,-1854,-1893,-1933,-1969,-2004,-2035,-2063,-2086,-2109,-2132,-2154,-2177,-2201,-2223,-2240,-2255,-2267,-2278,-2288,-2296,-2304,-2311,-2316,-2318,-2317,-2313,-2309,-2306,-2304,-2303,-2301,-2299,-2295,-2290,-2283,-2277,-2271,-2266,-2262,-2260,-2258,-2254,-2248,-2243,-2240,-2237,-2235,-2232,-2229,-2224,-2217,-2204,-2190,-2175,-2160,-2144,-2123,-2095,-2062,-2030,-2008,-1995,-1988,-1984,-1982,-1981,-1977,-1970,-1960,-1954,-1953,-1957,-1961,-1966,-1970,-1974,-1977,-1980,-1985,-1989,-1995,-1999,-2003,-2007,-2013,-2021,-2029,-2036,-2043,-2051,-2060,-2070,-2084,-2103,-2126,-2150,-2170,-2186,-2197,-2205,-2213,-2220,-2227,-2234,-2241,-2247,-2254,-2260,-2268,-2277,-2284,-2290,-2296,-2301,-2306,-2309,-2311,-2313,-2316,-2319
-327,-328,-329,-330,-331,-333,-334,-335,-336,-337,-338,-339,-340,-342,-344,-346,-348,-349,-351,-350,-349,-348,-349,-350,-351,-353,-355,-356,-358,-360,-362,-365,-368,-370,-370,-371,-371,-371,-372,-372,-373,-374,-376,-378,-380,-383,-385,-388,-390,-393,-395,-398,-400,-402,-404,-406,-407,-409,-410,-413,-415,-418,-421,-423,-426,-430,-434,-438,-441,-445,-448,-450,-453,-459,-470,-487,-505,-524,-544,-568,-592,-614,-634,-655,-675,-694,-715,-736,-756,-776,-795,-813,-825,-832,-838,-841,-844,-846,-847,-846,-842,-837,-840,-847,-851,-848,-840,-829,-816,-798,-779,-756,-728,-696,-670,-659,-668,-692,-729,-781,-842,-891,-928,-964,-996,-1022,-1046,-1068,-1090,-1112,-1137,-1162,-1185,-1205,-1226,-1247,-1265,-1279,-1295,-1310,-1325,-1343,-1362,-1376,-1390,-1404,-1418,-1430,-1440,-1449,-1457,-1467,-1481,-1495,-1506,-1518,-1531,-1543,-1555,-1564,-1571,-1575,-1576,-1571,-1559,-1542,-1518,-1484,-1446,-1410,-1375,-1338,-1304,-1272,-1237,-1205,-1187,-1183,-1189,-1197,-1210,-1225,-1241,-1254,-1268,-1283,-1301,-1316,-1331,-1346,-1363,-1378,-1392,-1408,-1427,-1447,-1471,-1497,-1521,-1539,-1553,-1564,-1572,-1579,-1588,-1600,-1613,-1625,-1636,-1645,-1655,-1667,-1676,-1681,-1683,-1683,-1682,-1678,-1671,-1661,-1650,-1639,-1626,-1607,-1584,-1559,-1530,-1502,-1473,-1444,-1415,-1391,-1367,-1346,-1332,-1327,-1325,-1322,-1320,-1317,-1310,-1294,-1275,-1254,-1233,-1217,-1210,-1211,-1221,-1235,-1250,-1266,-1286,-1310,-1336,-1366,-1390,-1411,-1430,-1451,-1471,-1493,-1519,-1547,-1571,-1592,-1610,-1626,-1639,-1653,-1670,-1688,-1703,-1716,-1730,-1749,-1766,-1778,-1786,-1792,-1800,-1811,-1822,-1832,-1842,-1852,-1863,-1876,-1889,-1898,-1905,-1913,-1923,-1935,-1948,-1961,-1972,-1983,-1992,-2000,-2008,-2016,-2022,-2029,-2034,-2036,-2037,-2037,-2038,-2040,-2042,-2044,-2047,-2050,-2057,-2061,-2063,-2061,-2058,-2054,-2052,-2050,-2046,-2039,-2032,-2026,-2019,-2011,-2001,-1991,-1980,-1973,-1970,-1968,-1966,-1965,-1963,-1961,-1960,-1961,-1963,-1968,-1974,-1982,-1992,-2008,-2029,-2051,-2073,-2095,-2112,-2126,-2141,-2157,-2172,-2186,-2199,-2210,-2219,-2227,-2234,-2238,-2240,-2240,-2240,-2239,-2238,-2236,-2232,-2229,-2226,-2224,-2221,-2217,-2212,-2206,-2201,-2196,-2189,-2182,-2178,-2178,-2178,-2176,-2172,-2168,-2161,-2151,-2141,-2130,-2121,-2112,-2105,-2099,-2095,-2096,-2098,-2101,-2104,-2106,-2107,-2104,-2097,-2089,-2082,-2076,-2072,-2066,-2061,-2058,-2057,-2054,-2049,-2040,-2028,-2007,-1965,-1913,-1881,-1868,-1861,-1853,-1845,-1837,-1833,-1841,-1865,-1898,-1932,-1967,-2001,-2037,-2069,-2097,-2121,-2146,-2172,-2195,-2217,-2238,-2256,-2270,-2282,-2294,-2305,-2314,-2321,-2324,-2327,-2328,-2328,-2327,-2326,-2325,-2324,-2323,-2321,-2320,-2317,-2313,-2310,-2308,-2304,-2297,-2292,-2287,-2281,-2275,-2271,-2268,-2266,-2264,-2262,-2259,-2254,-2248,-2242,-2235,-2227,-2214,-2195,-2167,-2132,-2099,-2069,-2044,-2027,-2019,-2017,-2016,-2017,-2017,-2012,-2001,-1991,-1984,-1982,-1983,-1987,-1992,-1998,-2002,-2006,-2010,-2014,-2019,-2024,-2029,-2034,-2041,-2047,-2053,-2059,-2065,-2071,-2078,-2086,-2096,-2108,-2125,-2148,-2170,-2188,-2201,-2211,-2218,-2225,-2232,-2239,-2247,-2254,-2262,-2270,-2279,-2288,-2296,-2304,-2311,-2317,-2322,-2325,-2328,-2329,-2332
-334,-335,-336,-337,-338,-339,-339,-340,-341,-342,-343,-345,-346,-348,-350,-352,-353,-355,-356,-356,-354,-352,-351,-352,-353,-355,-357,-359,-362,-366,-369,-373,-376,-378,-378,-378,-378,-378,-378,-379,-380,-381,-383,-385,-388,-390,-393,-396,-398,-400,-403,-405,-407,-409,-412,-414,-416,-418,-420,-422,-426,-430,-433,-436,-438,-440,-442,-444,-446,-449,-452,-456,-464,-474,-488,-502,-515,-533,-558,-589,-619,-648,-675,-697,-712,-727,-740,-753,-765,-781,-800,-822,-841,-857,-865,-871,-875,-880,-884,-886,-887,-888,-890,-894,-896,-895,-889,-878,-862,-847,-828,-800,-767,-739,-720,-707,-700,-703,-716,-741,-775,-817,-858,-896,-933,-969,-1004,-1033,-1058,-1086,-1116,-1148,-1177,-1202,-1223,-1243,-1262,-1278,-1292,-1307,-1324,-1342,-1360,-1379,-1395,-1409,-1421,-1433,-1445,-1459,-1471,-1484,-1497,-1511,-1523,-1535,-1549,-1564,-1579,-1589,-1597,-1603,-1607,-1606,-1599,-1584,-1556,-1519,-1480,-1438,-1396,-1361,-1332,-1305,-1278,-1253,-1233,-1225,-1230,-1238,-1246,-1256,-1267,-1279,-1291,-1304,-1317,-1331,-1345,-1359,-1374,-1390,-1407,-1425,-1446,-1472,-1497,-1518,-1535,-1552,-1566,-1579,-1590,-1601,-1610,-1621,-1631,-1642,-1651,-1660,-1671,-1684,-1693,-1698,-1699,-1699,-1698,-1693,-1684,-1673,-1662,-1650,-1634,-1612,-1584,-1551,-1521,-1495,-1470,-1446,-1428,-1414,-1400,-1387,-1378,-1370,-1363,-1355,-1347,-1338,-1326,-1314,-1300,-1284,-1270,-1263,-1260,-1254,-1248,-1243,-1240,-1245,-1264,-1295,-1333,-1372,-1407,-1444,-1481,-1510,-1530,-1547,-1564,-1578,-1589,-1600,-1611,-1621,-1631,-1641,-1651,-1660,-1670,-1680,-1692,-1705,-1723,-1743,-1760,-1773,-1784,-1796,-1806,-1815,-1825,-1835,-1846,-1858,-1874,-1890,-1904,-1916,-1928,-1939,-1950,-1959,-1968,-1976,-1985,-1995,-2004,-2011,-2019,-2028,-2037,-2045,-2052,-2056,-2058,-2060,-2062,-2064,-2065,-2067,-2071,-2076,-2081,-2085,-2089,-2091,-2089,-2088,-2085,-2081,-2074,-2066,-2057,-2051,-2044,-2037,-2029,-2024,-2017,-2009,-2003,-2000,-1998,-1996,-1993,-1989,-1986,-1985,-1987,-1991,-1998,-2007,-2018,-2034,-2053,-2074,-2094,-2114,-2131,-2145,-2158,-2174,-2191,-2207,-2219,-2230,-2239,-2246,-2251,-2254,-2254,-2254,-2253,-2251,-2249,-2246,-2243,-2241,-2239,-2237,-2233,-2230,-2227,-2224,-2219,-2216,-2213,-2210,-2204,-2198,-2190,-2183,-2175,-2165,-2152,-2136,-2122,-2114,-2116,-2123,-2132,-2137,-2137,-2136,-2135,-2136,-2135,-2129,-2121,-2110,-2100,-2094,-2091,-2089,-2088,-2088,-2089,-2087,-2078,-2061,-2038,-2012,-1984,-1959,-1940,-1930,-1923,-1917,-1907,-1893,-1880,-1872,-1872,-1883,-1899,-1921,-1952,-1988,-2024,-2055,-2086,-2114,-2139,-2159,-2180,-2204,-2228,-2250,-2270,-2288,-2302,-2313,-2323,-2330,-2334,-2338,-2342,-2345,-2347,-2347,-2346,-2345,-2344,-2343,-2342,-2342,-2341,-2341,-2339,-2335,-2327,-2317,-2309,-2303,-2298,-2295,-2293,-2290,-2287,-2283,-2278,-2273,-2268,-2261,-2254,-2245,-2234,-2219,-2199,-2175,-2150,-2127,-2107,-2086,-2068,-2055,-2053,-2056,-2058,-2057,-2053,-2044,-2031,-2017,-2008,-2005,-2008,-2013,-2019,-2025,-2030,-2035,-2040,-2046,-2051,-2055,-2059,-2065,-2071,-2078,-2084,-2091,-2099,-2108,-2116,-2126,-2137,-2150,-2169,-2190,-2210,-2223,-2234,-2242,-2249,-2255,-2262,-2267,-2273,-2279,-2286,-2294,-2303,-2313,-2323,-2330,-2334,-2337,-2341,-2344
-341,-341,-342,-343,-344,-345,-346,-347,-348,-349,-350,-352,-353,-355,-356,-358,-360,-362,-363,-364,-362,-361,-360,-360,-361,-362,-364,-366,-369,-371,-374,-378,-381,-383,-384,-384,-384,-384,-385,-385,-386,-388,-390,-393,-396,-399,-403,-406,-409,-412,-414,-417,-419,-421,-423,-425,-428,-431,-435,-439,-442,-444,-447,-451,-453,-455,-458,-463,-467,-472,-478,-485,-495,-507,-522,-538,-556,-577,-603,-632,-665,-698,-724,-744,-760,-772,-786,-801,-819,-836,-854,-870,-884,-892,-898,-902,-907,-912,-916,-919,-922,-924,-927,-930,-931,-932,-927,-916,-904,-892,-876,-861,-852,-836,-814,-795,-777,-763,-757,-760,-770,-787,-812,-841,-878,-924,-969,-1008,-1045,-1077,-1104,-1131,-1157,-1180,-1198,-1213,-1227,-1242,-1262,-1285,-1308,-1329,-1350,-1375,-1399,-1416,-1429,-1442,-1456,-1472,-1492,-1510,-1523,-1533,-1542,-1548,-1557,-1571,-1588,-1603,-1614,-1623,-1628,-1632,-1633,-1629,-1613,-1579,-1527,-1474,-1436,-1409,-1388,-1370,-1349,-1325,-1299,-1279,-1271,-1279,-1296,-1315,-1331,-1346,-1355,-1361,-1365,-1370,-1376,-1387,-1400,-1415,-1432,-1451,-1472,-1493,-1511,-1529,-1547,-1563,-1576,-1589,-1601,-1612,-1622,-1632,-1643,-1654,-1664,-1676,-1687,-1698,-1707,-1711,-1711,-1710,-1707,-1703,-1696,-1687,-1677,-1668,-1656,-1639,-1614,-1589,-1568,-1551,-1537,-1522,-1507,-1487,-1465,-1442,-1419,-1398,-1382,-1369,-1357,-1344,-1333,-1324,-1316,-1311,-1310,-1311,-1311,-1308,-1303,-1296,-1289,-1287,-1296,-1320,-1355,-1388,-1418,-1445,-1474,-1503,-1527,-1546,-1563,-1583,-1601,-1617,-1631,-1643,-1655,-1665,-1673,-1680,-1687,-1695,-1704,-1712,-1722,-1732,-1742,-1755,-1770,-1784,-1797,-1809,-1819,-1828,-1838,-1851,-1863,-1875,-1888,-1904,-1916,-1924,-1931,-1939,-1948,-1957,-1966,-1976,-1985,-1995,-2006,-2016,-2026,-2036,-2046,-2052,-2057,-2063,-2070,-2077,-2082,-2086,-2089,-2091,-2095,-2101,-2107,-2111,-2113,-2114,-2115,-2115,-2113,-2108,-2102,-2095,-2090,-2087,-2084,-2080,-2075,-2068,-2060,-2051,-2042,-2035,-2031,-2028,-2024,-2020,-2016,-2013,-2015,-2019,-2026,-2035,-2045,-2058,-2076,-2098,-2119,-2136,-2152,-2168,-2182,-2198,-2215,-2229,-2239,-2248,-2257,-2263,-2266,-2268,-2267,-2267,-2266,-2264,-2261,-2258,-2257,-2256,-2254,-2252,-2248,-2244,-2240,-2236,-2232,-2227,-2221,-2214,-2204,-2193,-2181,-2171,-2161,-2156,-2157,-2162,-2168,-2174,-2179,-2179,-2175,-2169,-2165,-2161,-2156,-2149,-2140,-2132,-2125,-2123,-2123,-2122,-2119,-2116,-2111,-2102,-2090,-2074,-2057,-2042,-2030,-2021,-2012,-2005,-1997,-1988,-1977,-1971,-1968,-1967,-1967,-1965,-1960,-1952,-1953,-1965,-1981,-2000,-2026,-2056,-2083,-2112,-2141,-2169,-2193,-2219,-2245,-2269,-2290,-2308,-2321,-2331,-2339,-2345,-2351,-2356,-2360,-2365,-2367,-2367,-2365,-2365,-2365,-2365,-2365,-2365,-2365,-2363,-2358,-2350,-2342,-2335,-2330,-2327,-2325,-2323,-2318,-2311,-2304,-2298,-2292,-2286,-2282,-2278,-2274,-2269,-2264,-2255,-2242,-2224,-2203,-2175,-2146,-2121,-2107,-2104,-2102,-2096,-2088,-2079,-2070,-2060,-2048,-2034,-2025,-2025,-2030,-2037,-2043,-2049,-2055,-2060,-2065,-2069,-2074,-2079,-2084,-2089,-2095,-2101,-2107,-2114,-2123,-2131,-2140,-2149,-2160,-2174,-2193,-2215,-2233,-2247,-2256,-2264,-2271,-2278,-2284,-2290,-2296,-2302,-2310,-2319,-2329,-2337,-2343,-2348,-2351,-2355
-349,-350,-351,-352,-353,-354,-355,-357,-358,-359,-360,-361,-362,-363,-365,-366,-367,-368,-369,-370,-369,-369,-369,-369,-371,-372,-374,-375,-377,-378,-380,-382,-385,-387,-389,-389,-390,-391,-391,-393,-394,-396,-399,-402,-406,-411,-415,-420,-425,-429,-432,-436,-438,-440,-441,-442,-444,-449,-457,-468,-477,-488,-502,-517,-525,-525,-522,-528,-536,-541,-542,-541,-537,-534,-537,-553,-579,-608,-634,-661,-691,-722,-752,-782,-807,-827,-848,-868,-882,-891,-899,-909,-917,-924,-929,-934,-939,-944,-947,-950,-953,-956,-959,-960,-962,-964,-965,-961,-953,-944,-938,-929,-918,-901,-881,-859,-837,-819,-814,-822,-839,-857,-878,-894,-909,-930,-959,-990,-1020,-1053,-1093,-1132,-1157,-1176,-1199,-1220,-1240,-1259,-1281,-1301,-1321,-1342,-1364,-1386,-1410,-1433,-1452,-1464,-1473,-1483,-1496,-1511,-1527,-1544,-1561,-1578,-1592,-1602,-1611,-1621,-1631,-1639,-1645,-1650,-1653,-1654,-1649,-1626,-1580,-1533,-1495,-1467,-1447,-1429,-1401,-1361,-1324,-1300,-1294,-1305,-1324,-1344,-1366,-1389,-1408,-1423,-1436,-1447,-1458,-1466,-1476,-1483,-1489,-1496,-1506,-1515,-1525,-1537,-1551,-1564,-1578,-1592,-1605,-1617,-1629,-1640,-1652,-1667,-1683,-1696,-1708,-1718,-1725,-1726,-1725,-1722,-1717,-1711,-1703,-1695,-1687,-1681,-1673,-1661,-1646,-1628,-1611,-1595,-1580,-1564,-1543,-1517,-1488,-1456,-1423,-1397,-1380,-1367,-1356,-1346,-1338,-1334,-1334,-1335,-1337,-1337,-1337,-1336,-1333,-1330,-1328,-1329,-1331,-1343,-1364,-1387,-1413,-1442,-1469,-1496,-1520,-1541,-1560,-1582,-1601,-1614,-1626,-1643,-1658,-1669,-1679,-1692,-1705,-1716,-1726,-1734,-1741,-1749,-1756,-1765,-1774,-1784,-1798,-1812,-1821,-1826,-1833,-1839,-1845,-1851,-1855,-1859,-1864,-1872,-1882,-1892,-1902,-1913,-1925,-1936,-1947,-1960,-1973,-1987,-2002,-2017,-2029,-2038,-2045,-2051,-2056,-2064,-2075,-2087,-2096,-2104,-2113,-2121,-2129,-2135,-2139,-2141,-2143,-2145,-2144,-2142,-2142,-2143,-2141,-2138,-2134,-2130,-2126,-2122,-2116,-2108,-2100,-2090,-2079,-2070,-2063,-2060,-2058,-2055,-2050,-2046,-2045,-2047,-2051,-2058,-2068,-2083,-2101,-2121,-2140,-2157,-2172,-2190,-2208,-2224,-2237,-2248,-2257,-2266,-2274,-2278,-2280,-2280,-2280,-2279,-2278,-2277,-2275,-2273,-2272,-2270,-2265,-2260,-2256,-2253,-2250,-2246,-2241,-2234,-2224,-2217,-2212,-2210,-2210,-2214,-2217,-2217,-2216,-2215,-2213,-2208,-2200,-2194,-2188,-2183,-2178,-2172,-2166,-2163,-2162,-2163,-2163,-2162,-2159,-2155,-2147,-2133,-2113,-2093,-2077,-2071,-2073,-2076,-2074,-2067,-2058,-2042,-2025,-2011,-2004,-2000,-1999,-2000,-2002,-2000,-1992,-1982,-1977,-1977,-1984,-1999,-2023,-2054,-2088,-2121,-2157,-2194,-2227,-2254,-2277,-2295,-2310,-2323,-2335,-2346,-2354,-2361,-2366,-2372,-2376,-2380,-2383,-2384,-2384,-2383,-2382,-2381,-2380,-2380,-2380,-2377,-2374,-2370,-2365,-2361,-2357,-2353,-2348,-2340,-2332,-2326,-2320,-2316,-2312,-2308,-2305,-2302,-2299,-2295,-2291,-2283,-2266,-2244,-2221,-2202,-2187,-2174,-2161,-2144,-2124,-2105,-2091,-2082,-2075,-2067,-2056,-2046,-2042,-2045,-2051,-2057,-2064,-2070,-2076,-2081,-2085,-2091,-2096,-2101,-2105,-2111,-2116,-2121,-2128,-2135,-2142,-2150,-2158,-2166,-2175,-2189,-2207,-2227,-2246,-2263,-2276,-2285,-2294,-2301,-2308,-2314,-2321,-2329,-2337,-2345,-2351,-2355,-2358,-2362
-360,-361,-363,-364,-365,-366,-367,-368,-369,-370,-371,-372,-373,-374,-374,-375,-376,-376,-377,-377,-377,-376,-375,-375,-376,-378,-379,-381,-383,-385,-387,-389,-392,-394,-396,-396,-397,-398,-399,-401,-403,-406,-410,-414,-419,-424,-431,-437,-444,-452,-459,-466,-474,-481,-489,-496,-505,-515,-529,-539,-547,-558,-579,-601,-619,-629,-631,-627,-627,-632,-637,-637,-629,-617,-606,-606,-623,-648,-672,-697,-721,-747,-776,-802,-822,-841,-860,-879,-896,-912,-925,-935,-942,-948,-953,-958,-964,-971,-978,-983,-987,-990,-992,-996,-1000,-1002,-1001,-999,-995,-990,-981,-968,-954,-943,-932,-921,-902,-877,-855,-850,-862,-886,-921,-958,-988,-1015,-1040,-1063,-1086,-1114,-1146,-1174,-1195,-1215,-1237,-1259,-1281,-1304,-1325,-1342,-1360,-1382,-1403,-1421,-1441,-1460,-1477,-1492,-1507,-1520,-1531,-1543,-1556,-1569,-1579,-1587,-1598,-1611,-1623,-1634,-1644,-1651,-1657,-1662,-1666,-1668,-1667,-1658,-1635,-1598,-1555,-1516,-1481,-1446,-1410,-1375,-1344,-1321,-1308,-1307,-1315,-1331,-1353,-1376,-1400,-1426,-1450,-1472,-1494,-1514,-1528,-1538,-1548,-1557,-1565,-1572,-1578,-1584,-1592,-1600,-1608,-1617,-1628,-1641,-1651,-1662,-1673,-1687,-1701,-1714,-1725,-1734,-1739,-1741,-1739,-1735,-1729,-1721,-1712,-1705,-1699,-1693,-1684,-1674,-1662,-1644,-1622,-1600,-1580,-1558,-1536,-1511,-1483,-1452,-1427,-1406,-1388,-1373,-1362,-1350,-1342,-1340,-1344,-1352,-1359,-1363,-1364,-1364,-1362,-1360,-1360,-1365,-1372,-1375,-1375,-1381,-1395,-1416,-1445,-1479,-1506,-1527,-1547,-1565,-1579,-1589,-1598,-1611,-1628,-1645,-1663,-1680,-1696,-1711,-1727,-1739,-1744,-1746,-1749,-1754,-1758,-1764,-1770,-1780,-1790,-1800,-1807,-1811,-1815,-1820,-1825,-1831,-1838,-1846,-1853,-1862,-1874,-1887,-1899,-1910,-1922,-1933,-1942,-1950,-1961,-1975,-1989,-2003,-2015,-2026,-2035,-2045,-2056,-2068,-2082,-2096,-2110,-2122,-2134,-2147,-2157,-2164,-2171,-2174,-2174,-2173,-2172,-2172,-2172,-2173,-2173,-2172,-2169,-2165,-2159,-2153,-2148,-2142,-2135,-2128,-2121,-2115,-2109,-2104,-2099,-2092,-2086,-2081,-2079,-2079,-2081,-2085,-2095,-2110,-2126,-2143,-2161,-2180,-2197,-2213,-2228,-2243,-2254,-2264,-2274,-2283,-2289,-2292,-2294,-2294,-2295,-2295,-2295,-2293,-2291,-2287,-2281,-2277,-2274,-2271,-2269,-2267,-2264,-2259,-2254,-2252,-2253,-2255,-2255,-2256,-2256,-2255,-2250,-2245,-2238,-2229,-2222,-2215,-2209,-2203,-2197,-2192,-2191,-2192,-2196,-2198,-2197,-2194,-2189,-2181,-2169,-2152,-2132,-2112,-2103,-2104,-2106,-2108,-2109,-2107,-2101,-2091,-2077,-2059,-2041,-2026,-2016,-2013,-2014,-2015,-2015,-2012,-2003,-1991,-1979,-1978,-1995,-2025,-2056,-2088,-2121,-2155,-2188,-2219,-2246,-2268,-2284,-2300,-2318,-2335,-2350,-2361,-2370,-2378,-2385,-2391,-2397,-2401,-2403,-2403,-2401,-2398,-2397,-2396,-2397,-2398,-2398,-2397,-2393,-2388,-2381,-2375,-2369,-2363,-2357,-2353,-2349,-2345,-2341,-2337,-2335,-2333,-2332,-2332,-2332,-2329,-2323,-2312,-2300,-2284,-2266,-2246,-2228,-2209,-2185,-2159,-2138,-2125,-2117,-2111,-2101,-2083,-2065,-2055,-2056,-2062,-2069,-2076,-2083,-2089,-2095,-2100,-2106,-2110,-2115,-2119,-2124,-2129,-2135,-2139,-2145,-2150,-2157,-2163,-2171,-2180,-2190,-2200,-2216,-2237,-2258,-2274,-2287,-2297,-2306,-2313,-2321,-2328,-2335,-2343,-2351,-2358,-2364,-2369
-374,-375,-376,-377,-379,-380,-381,-382,-383,-384,-385,-386,-386,-387,-387,-387,-387,-386,-386,-386,-385,-385,-384,-384,-384,-385,-386,-388,-389,-391,-393,-395,-398,-400,-402,-403,-405,-406,-408,-410,-413,-417,-422,-427,-433,-440,-448,-456,-465,-477,-488,-501,-516,-531,-547,-566,-586,-606,-621,-631,-640,-651,-655,-658,-669,-685,-698,-710,-720,-726,-730,-732,-729,-715,-695,-677,-674,-690,-721,-753,-783,-811,-835,-855,-874,-889,-902,-913,-924,-934,-943,-951,-962,-972,-979,-985,-991,-997,-1005,-1016,-1026,-1033,-1036,-1037,-1037,-1037,-1038,-1035,-1031,-1027,-1019,-1008,-997,-987,-978,-970,-960,-943,-923,-905,-888,-875,-879,-904,-937,-973,-1006,-1036,-1067,-1101,-1134,-1164,-1184,-1201,-1216,-1230,-1245,-1261,-1278,-1298,-1324,-1348,-1368,-1387,-1406,-1423,-1443,-1463,-1480,-1495,-1511,-1526,-1541,-1557,-1575,-1589,-1600,-1614,-1628,-1641,-1651,-1660,-1667,-1673,-1678,-1681,-1681,-1679,-1672,-1652,-1619,-1578,-1534,-1491,-1454,-1427,-1410,-1401,-1391,-1375,-1352,-1333,-1326,-1335,-1357,-1382,-1404,-1428,-1453,-1476,-1496,-1514,-1529,-1543,-1559,-1576,-1593,-1606,-1618,-1629,-1640,-1651,-1664,-1678,-1689,-1700,-1711,-1720,-1729,-1738,-1746,-1753,-1757,-1757,-1755,-1751,-1745,-1736,-1726,-1719,-1711,-1702,-1693,-1681,-1665,-1645,-1625,-1606,-1584,-1564,-1543,-1517,-1484,-1454,-1433,-1421,-1411,-1400,-1387,-1372,-1360,-1356,-1361,-1369,-1375,-1380,-1384,-1388,-1391,-1393,-1393,-1395,-1401,-1406,-1410,-1412,-1412,-1412,-1416,-1428,-1451,-1481,-1507,-1527,-1546,-1566,-1582,-1595,-1609,-1629,-1648,-1666,-1684,-1699,-1713,-1728,-1742,-1754,-1760,-1763,-1763,-1765,-1770,-1775,-1780,-1785,-1792,-1802,-1811,-1818,-1822,-1826,-1831,-1836,-1843,-1851,-1860,-1869,-1879,-1890,-1900,-1908,-1917,-1927,-1935,-1943,-1951,-1962,-1972,-1981,-1992,-2004,-2016,-2030,-2047,-2064,-2080,-2095,-2108,-2121,-2133,-2147,-2160,-2172,-2182,-2190,-2196,-2199,-2199,-2199,-2200,-2200,-2201,-2201,-2201,-2199,-2195,-2190,-2185,-2181,-2175,-2169,-2165,-2161,-2154,-2145,-2139,-2135,-2133,-2134,-2132,-2125,-2118,-2118,-2125,-2136,-2149,-2164,-2179,-2195,-2212,-2228,-2243,-2259,-2272,-2282,-2291,-2300,-2305,-2308,-2310,-2311,-2311,-2310,-2306,-2301,-2297,-2294,-2293,-2292,-2292,-2292,-2290,-2287,-2285,-2284,-2283,-2281,-2280,-2280,-2280,-2280,-2279,-2275,-2269,-2262,-2254,-2245,-2235,-2228,-2223,-2221,-2223,-2226,-2227,-2225,-2221,-2216,-2208,-2197,-2183,-2168,-2153,-2143,-2141,-2143,-2144,-2143,-2141,-2138,-2132,-2120,-2104,-2085,-2066,-2051,-2042,-2035,-2032,-2030,-2030,-2030,-2026,-2015,-1999,-1982,-1976,-1987,-2010,-2038,-2067,-2097,-2130,-2165,-2196,-2221,-2245,-2269,-2292,-2313,-2332,-2350,-2365,-2376,-2386,-2394,-2401,-2405,-2408,-2410,-2411,-2412,-2412,-2413,-2413,-2414,-2415,-2416,-2416,-2412,-2406,-2400,-2395,-2391,-2387,-2383,-2379,-2374,-2370,-2366,-2365,-2363,-2363,-2362,-2360,-2357,-2353,-2348,-2342,-2335,-2325,-2313,-2293,-2270,-2246,-2226,-2206,-2189,-2174,-2161,-2142,-2120,-2095,-2077,-2069,-2070,-2075,-2082,-2089,-2096,-2103,-2109,-2114,-2119,-2124,-2128,-2133,-2138,-2143,-2148,-2153,-2158,-2163,-2168,-2173,-2180,-2187,-2195,-2204,-2214,-2226,-2243,-2261,-2277,-2287,-2295,-2302,-2310,-2318,-2328,-2338,-2348,-2357,-2368
-389,-391,-392,-393,-395,-396,-397,-398,-399,-401,-402,-403,-403,-403,-403,-402,-401,-400,-398,-397,-395,-393,-392,-392,-392,-392,-394,-395,-396,-397,-399,-401,-404,-407,-410,-411,-412,-414,-416,-419,-422,-426,-431,-437,-445,-453,-462,-472,-485,-498,-513,-530,-548,-565,-584,-604,-621,-639,-659,-680,-699,-715,-723,-730,-734,-737,-742,-755,-771,-787,-797,-800,-796,-783,-764,-741,-718,-709,-716,-739,-770,-801,-830,-861,-890,-907,-917,-928,-939,-951,-961,-971,-982,-994,-1006,-1015,-1022,-1030,-1038,-1049,-1060,-1066,-1070,-1073,-1074,-1075,-1075,-1075,-1072,-1064,-1056,-1046,-1037,-1027,-1017,-1006,-991,-974,-957,-939,-917,-891,-869,-860,-872,-895,-920,-954,-997,-1035,-1065,-1094,-1118,-1140,-1165,-1192,-1219,-1245,-1269,-1294,-1321,-1349,-1375,-1396,-1417,-1437,-1460,-1483,-1503,-1519,-1536,-1551,-1566,-1578,-1588,-1597,-1607,-1617,-1625,-1635,-1647,-1661,-1672,-1680,-1686,-1690,-1692,-1691,-1687,-1679,-1665,-1641,-1607,-1570,-1534,-1502,-1481,-1468,-1454,-1429,-1401,-1379,-1360,-1344,-1336,-1340,-1359,-1384,-1408,-1433,-1459,-1483,-1506,-1528,-1551,-1572,-1589,-1606,-1623,-1637,-1649,-1661,-1674,-1689,-1702,-1714,-1724,-1734,-1745,-1754,-1762,-1767,-1771,-1774,-1774,-1770,-1763,-1754,-1746,-1738,-1728,-1720,-1710,-1698,-1682,-1666,-1648,-1628,-1605,-1583,-1559,-1529,-1497,-1469,-1448,-1435,-1425,-1412,-1398,-1390,-1388,-1389,-1391,-1394,-1394,-1393,-1396,-1402,-1406,-1410,-1414,-1420,-1428,-1435,-1438,-1439,-1439,-1439,-1438,-1436,-1436,-1454,-1490,-1527,-1555,-1576,-1595,-1615,-1636,-1653,-1667,-1683,-1702,-1719,-1732,-1745,-1756,-1765,-1773,-1781,-1789,-1793,-1795,-1798,-1803,-1810,-1816,-1822,-1828,-1834,-1839,-1842,-1845,-1849,-1853,-1857,-1861,-1866,-1871,-1877,-1885,-1893,-1900,-1907,-1915,-1923,-1931,-1938,-1945,-1954,-1964,-1974,-1983,-1992,-2002,-2013,-2024,-2037,-2050,-2062,-2077,-2094,-2110,-2126,-2143,-2160,-2174,-2187,-2200,-2211,-2220,-2226,-2228,-2230,-2231,-2232,-2231,-2230,-2228,-2227,-2225,-2221,-2215,-2211,-2206,-2203,-2199,-2194,-2189,-2186,-2182,-2172,-2162,-2156,-2154,-2157,-2161,-2168,-2176,-2187,-2199,-2214,-2232,-2250,-2265,-2279,-2293,-2304,-2312,-2318,-2323,-2326,-2328,-2328,-2327,-2324,-2320,-2317,-2316,-2316,-2317,-2316,-2315,-2313,-2311,-2308,-2306,-2304,-2302,-2300,-2298,-2296,-2296,-2295,-2295,-2293,-2289,-2280,-2271,-2264,-2260,-2255,-2251,-2248,-2245,-2243,-2241,-2233,-2219,-2207,-2195,-2184,-2176,-2174,-2173,-2172,-2169,-2164,-2158,-2149,-2139,-2127,-2114,-2102,-2092,-2084,-2077,-2070,-2066,-2065,-2066,-2065,-2061,-2051,-2032,-2010,-1989,-1976,-1975,-1990,-2015,-2049,-2087,-2124,-2157,-2187,-2216,-2245,-2272,-2296,-2318,-2337,-2352,-2365,-2378,-2390,-2400,-2408,-2416,-2422,-2426,-2430,-2433,-2436,-2437,-2435,-2434,-2433,-2432,-2431,-2429,-2427,-2423,-2420,-2418,-2415,-2411,-2405,-2400,-2398,-2397,-2397,-2395,-2391,-2385,-2378,-2372,-2367,-2361,-2354,-2348,-2342,-2334,-2324,-2312,-2294,-2272,-2247,-2225,-2204,-2185,-2167,-2150,-2133,-2117,-2103,-2094,-2091,-2092,-2098,-2105,-2113,-2119,-2125,-2131,-2137,-2142,-2148,-2153,-2158,-2162,-2166,-2170,-2176,-2181,-2186,-2192,-2199,-2206,-2214,-2222,-2232,-2245,-2261,-2279,-2293,-2303,-2309,-2316,-2324,-2333,-2341,-2349,-2359
-408,-410,-412,-413,-415,-417,-418,-420,-421,-423,-424,-425,-426,-426,-425,-423,-421,-419,-416,-413,-410,-407,-405,-404,-403,-403,-404,-405,-405,-407,-408,-411,-413,-416,-418,-419,-420,-421,-423,-426,-429,-432,-437,-442,-449,-457,-468,-479,-492,-507,-526,-546,-567,-588,-608,-624,-641,-653,-664,-680,-706,-736,-763,-782,-794,-798,-800,-802,-810,-822,-835,-844,-846,-843,-833,-817,-802,-787,-775,-770,-777,-794,-817,-840,-860,-878,-895,-911,-926,-940,-955,-968,-983,-1001,-1017,-1029,-1039,-1051,-1062,-1072,-1082,-1090,-1095,-1099,-1102,-1105,-1107,-1109,-1106,-1099,-1090,-1082,-1073,-1063,-1051,-1035,-1014,-994,-977,-960,-944,-927,-905,-879,-864,-864,-875,-894,-921,-958,-1004,-1044,-1073,-1096,-1125,-1155,-1186,-1218,-1246,-1267,-1289,-1316,-1342,-1370,-1402,-1433,-1456,-1478,-1502,-1527,-1547,-1565,-1581,-1596,-1610,-1621,-1631,-1638,-1645,-1651,-1660,-1670,-1681,-1690,-1696,-1700,-1701,-1702,-1702,-1700,-1695,-1683,-1661,-1633,-1599,-1569,-1544,-1524,-1504,-1483,-1459,-1434,-1411,-1393,-1377,-1364,-1360,-1369,-1385,-1411,-1437,-1462,-1485,-1511,-1534,-1555,-1574,-1592,-1608,-1624,-1641,-1658,-1673,-1688,-1704,-1717,-1728,-1741,-1756,-1769,-1778,-1784,-1788,-1790,-1790,-1786,-1779,-1771,-1761,-1752,-1744,-1735,-1723,-1709,-1695,-1681,-1667,-1654,-1636,-1610,-1578,-1548,-1518,-1484,-1453,-1435,-1425,-1416,-1410,-1412,-1416,-1421,-1425,-1427,-1428,-1429,-1431,-1436,-1440,-1445,-1450,-1455,-1459,-1462,-1463,-1465,-1466,-1467,-1468,-1468,-1466,-1469,-1488,-1527,-1570,-1596,-1608,-1620,-1637,-1657,-1678,-1700,-1718,-1733,-1745,-1757,-1767,-1777,-1786,-1795,-1803,-1809,-1817,-1824,-1829,-1834,-1842,-1849,-1854,-1859,-1867,-1874,-1877,-1877,-1878,-1881,-1886,-1891,-1896,-1897,-1898,-1898,-1901,-1904,-1908,-1914,-1921,-1928,-1935,-1942,-1949,-1957,-1965,-1972,-1979,-1987,-1995,-2003,-2010,-2018,-2027,-2036,-2047,-2062,-2078,-2091,-2104,-2119,-2138,-2159,-2180,-2201,-2218,-2229,-2241,-2252,-2258,-2260,-2260,-2263,-2266,-2266,-2263,-2259,-2255,-2251,-2247,-2243,-2239,-2234,-2228,-2223,-2217,-2210,-2201,-2194,-2190,-2189,-2192,-2197,-2203,-2212,-2225,-2240,-2256,-2271,-2286,-2300,-2313,-2324,-2333,-2340,-2345,-2349,-2351,-2351,-2350,-2348,-2346,-2344,-2342,-2341,-2339,-2336,-2333,-2330,-2328,-2326,-2323,-2321,-2319,-2318,-2316,-2316,-2317,-2317,-2314,-2311,-2307,-2299,-2291,-2283,-2277,-2272,-2268,-2262,-2254,-2241,-2230,-2222,-2219,-2215,-2209,-2203,-2198,-2193,-2188,-2180,-2171,-2161,-2152,-2143,-2134,-2126,-2118,-2113,-2110,-2112,-2115,-2119,-2120,-2119,-2115,-2107,-2092,-2071,-2050,-2032,-2018,-2011,-2010,-2021,-2045,-2080,-2118,-2152,-2182,-2210,-2238,-2265,-2291,-2314,-2335,-2353,-2369,-2383,-2396,-2407,-2416,-2423,-2431,-2439,-2445,-2450,-2456,-2459,-2458,-2456,-2453,-2451,-2449,-2449,-2448,-2447,-2445,-2442,-2438,-2433,-2428,-2424,-2422,-2421,-2419,-2414,-2407,-2399,-2391,-2383,-2377,-2371,-2366,-2361,-2355,-2349,-2343,-2335,-2325,-2313,-2297,-2281,-2265,-2251,-2237,-2223,-2209,-2191,-2166,-2139,-2117,-2108,-2109,-2113,-2118,-2123,-2130,-2138,-2147,-2156,-2165,-2172,-2178,-2182,-2186,-2189,-2194,-2199,-2204,-2210,-2215,-2220,-2227,-2234,-2242,-2253,-2270,-2288,-2304,-2314,-2323,-2332,-2342,-2350,-2358,-2364
-432,-434,-437,-439,-442,-444,-446,-448,-451,-452,-454,-455,-457,-457,-456,-454,-451,-446,-441,-434,-428,-423,-420,-418,-417,-417,-417,-417,-417,-418,-419,-421,-424,-426,-428,-430,-430,-431,-432,-434,-436,-438,-441,-445,-451,-460,-470,-481,-491,-503,-520,-540,-567,-594,-614,-627,-648,-673,-697,-716,-737,-758,-776,-795,-813,-828,-840,-851,-860,-869,-876,-882,-888,-894,-900,-899,-889,-874,-856,-843,-838,-838,-840,-841,-846,-860,-879,-899,-921,-943,-961,-978,-998,-1018,-1035,-1048,-1060,-1069,-1078,-1088,-1100,-1112,-1121,-1127,-1131,-1132,-1133,-1135,-1137,-1135,-1128,-1118,-1111,-1104,-1093,-1077,-1061,-1045,-1029,-1015,-998,-978,-953,-926,-904,-897,-913,-938,-963,-993,-1034,-1079,-1119,-1150,-1175,-1198,-1225,-1254,-1284,-1313,-1342,-1368,-1395,-1422,-1449,-1473,-1491,-1508,-1524,-1541,-1556,-1572,-1587,-1598,-1610,-1624,-1636,-1646,-1654,-1664,-1673,-1684,-1694,-1703,-1710,-1715,-1718,-1720,-1721,-1721,-1719,-1713,-1705,-1690,-1668,-1642,-1611,-1579,-1553,-1531,-1511,-1491,-1473,-1456,-1443,-1437,-1435,-1429,-1422,-1428,-1452,-1484,-1515,-1540,-1561,-1583,-1603,-1620,-1632,-1646,-1661,-1679,-1699,-1718,-1733,-1744,-1754,-1765,-1777,-1789,-1799,-1804,-1807,-1808,-1806,-1800,-1792,-1782,-1772,-1762,-1753,-1743,-1731,-1719,-1705,-1691,-1677,-1663,-1648,-1630,-1605,-1574,-1540,-1503,-1469,-1442,-1423,-1417,-1422,-1430,-1437,-1443,-1447,-1451,-1456,-1461,-1466,-1470,-1474,-1477,-1480,-1482,-1483,-1483,-1483,-1484,-1485,-1485,-1487,-1488,-1489,-1489,-1493,-1507,-1535,-1571,-1605,-1627,-1644,-1663,-1684,-1702,-1718,-1730,-1739,-1749,-1759,-1770,-1781,-1792,-1801,-1811,-1822,-1833,-1841,-1848,-1856,-1863,-1869,-1876,-1883,-1892,-1898,-1902,-1906,-1909,-1911,-1915,-1919,-1922,-1924,-1925,-1926,-1927,-1928,-1931,-1933,-1936,-1938,-1941,-1945,-1951,-1957,-1962,-1968,-1975,-1982,-1989,-1995,-2002,-2010,-2016,-2022,-2030,-2039,-2048,-2058,-2070,-2083,-2099,-2117,-2135,-2151,-2167,-2187,-2207,-2229,-2249,-2264,-2275,-2284,-2290,-2293,-2293,-2293,-2294,-2293,-2291,-2289,-2286,-2279,-2271,-2263,-2255,-2249,-2243,-2237,-2232,-2229,-2229,-2229,-2231,-2236,-2246,-2259,-2273,-2284,-2295,-2309,-2323,-2336,-2349,-2359,-2365,-2369,-2371,-2371,-2371,-2370,-2369,-2368,-2367,-2364,-2358,-2353,-2350,-2349,-2348,-2346,-2342,-2339,-2340,-2342,-2339,-2337,-2335,-2335,-2335,-2335,-2334,-2330,-2323,-2313,-2300,-2289,-2278,-2267,-2258,-2253,-2251,-2249,-2244,-2237,-2228,-2219,-2212,-2206,-2199,-2190,-2181,-2173,-2164,-2155,-2147,-2142,-2141,-2144,-2149,-2153,-2156,-2155,-2153,-2152,-2148,-2141,-2130,-2115,-2096,-2078,-2065,-2058,-2054,-2053,-2058,-2080,-2115,-2152,-2184,-2214,-2241,-2265,-2288,-2312,-2334,-2351,-2366,-2381,-2395,-2409,-2421,-2434,-2445,-2453,-2461,-2468,-2474,-2476,-2477,-2477,-2476,-2473,-2470,-2468,-2467,-2466,-2465,-2462,-2458,-2455,-2451,-2448,-2444,-2440,-2435,-2430,-2424,-2418,-2409,-2400,-2394,-2389,-2387,-2386,-2385,-2381,-2373,-2363,-2354,-2344,-2334,-2322,-2311,-2296,-2280,-2260,-2238,-2212,-2184,-2160,-2142,-2128,-2120,-2117,-2120,-2128,-2137,-2147,-2158,-2170,-2181,-2189,-2195,-2199,-2203,-2206,-2211,-2217,-2223,-2228,-2233,-2239,-2245,-2252,-2259,-2268,-2280,-2293,-2306,-2318,-2330,-2341,-2352,-2360,-2367
-460,-463,-467,-471,-476,-481,-486,-490,-493,-497,-499,-500,-501,-502,-501,-500,-497,-493,-485,-475,-465,-455,-446,-442,-438,-435,-432,-430,-429,-429,-430,-431,-432,-433,-433,-432,-433,-434,-436,-438,-440,-441,-443,-447,-454,-462,-469,-476,-483,-490,-499,-510,-521,-535,-558,-582,-601,-617,-641,-670,-703,-736,-766,-789,-808,-826,-848,-868,-885,-899,-909,-918,-925,-933,-940,-945,-946,-941,-931,-923,-917,-914,-906,-893,-879,-883,-905,-935,-962,-984,-1003,-1021,-1039,-1055,-1068,-1078,-1086,-1094,-1103,-1112,-1121,-1130,-1139,-1147,-1153,-1157,-1159,-1161,-1162,-1164,-1163,-1160,-1154,-1147,-1138,-1128,-1115,-1099,-1081,-1062,-1040,-1018,-999,-979,-952,-931,-930,-951,-986,-1025,-1067,-1111,-1152,-1187,-1221,-1254,-1286,-1311,-1336,-1361,-1384,-1402,-1420,-1439,-1454,-1467,-1480,-1492,-1503,-1515,-1528,-1542,-1556,-1570,-1587,-1606,-1625,-1642,-1654,-1663,-1673,-1684,-1697,-1708,-1719,-1728,-1733,-1736,-1737,-1737,-1736,-1732,-1724,-1715,-1705,-1690,-1667,-1641,-1618,-1598,-1583,-1573,-1562,-1547,-1535,-1527,-1518,-1499,-1478,-1464,-1464,-1478,-1499,-1521,-1545,-1570,-1592,-1614,-1635,-1653,-1667,-1685,-1706,-1728,-1746,-1762,-1777,-1790,-1802,-1811,-1819,-1823,-1826,-1827,-1826,-1822,-1812,-1798,-1784,-1772,-1761,-1748,-1735,-1722,-1709,-1699,-1690,-1677,-1660,-1642,-1623,-1598,-1570,-1543,-1514,-1482,-1452,-1430,-1424,-1434,-1443,-1449,-1455,-1462,-1468,-1476,-1485,-1491,-1494,-1495,-1492,-1490,-1493,-1498,-1502,-1503,-1504,-1503,-1504,-1507,-1510,-1512,-1512,-1514,-1519,-1537,-1566,-1597,-1620,-1642,-1664,-1685,-1704,-1719,-1731,-1740,-1752,-1767,-1781,-1794,-1807,-1819,-1830,-1840,-1849,-1857,-1865,-1874,-1882,-1889,-1893,-1898,-1905,-1910,-1914,-1919,-1925,-1928,-1931,-1934,-1936,-1938,-1941,-1945,-1949,-1953,-1957,-1960,-1961,-1962,-1963,-1966,-1969,-1971,-1974,-1976,-1979,-1984,-1990,-1997,-2003,-2008,-2015,-2021,-2028,-2036,-2044,-2052,-2060,-2071,-2083,-2092,-2101,-2113,-2126,-2140,-2156,-2175,-2196,-2218,-2242,-2264,-2282,-2296,-2306,-2313,-2317,-2320,-2321,-2322,-2321,-2318,-2313,-2307,-2302,-2298,-2292,-2286,-2278,-2272,-2267,-2265,-2266,-2269,-2276,-2285,-2296,-2307,-2319,-2330,-2341,-2353,-2364,-2373,-2380,-2386,-2390,-2392,-2393,-2392,-2389,-2385,-2381,-2378,-2374,-2370,-2368,-2368,-2368,-2366,-2363,-2362,-2362,-2362,-2361,-2361,-2361,-2361,-2360,-2359,-2356,-2351,-2341,-2326,-2310,-2296,-2287,-2284,-2284,-2282,-2275,-2265,-2255,-2246,-2237,-2228,-2220,-2212,-2205,-2197,-2188,-2178,-2168,-2162,-2162,-2168,-2176,-2183,-2186,-2186,-2185,-2183,-2182,-2179,-2176,-2173,-2168,-2161,-2151,-2138,-2125,-2114,-2106,-2100,-2096,-2098,-2111,-2134,-2164,-2197,-2230,-2262,-2289,-2312,-2330,-2346,-2362,-2379,-2395,-2410,-2426,-2440,-2453,-2462,-2468,-2472,-2476,-2480,-2483,-2486,-2487,-2486,-2484,-2482,-2482,-2482,-2482,-2481,-2478,-2474,-2471,-2468,-2464,-2460,-2456,-2452,-2447,-2440,-2433,-2429,-2427,-2426,-2424,-2420,-2413,-2405,-2397,-2387,-2378,-2368,-2360,-2351,-2341,-2327,-2309,-2287,-2264,-2241,-2215,-2189,-2169,-2154,-2143,-2135,-2133,-2137,-2145,-2154,-2164,-2174,-2184,-2193,-2199,-2203,-2208,-2215,-2222,-2229,-2236,-2243,-2250,-2256,-2263,-2270,-2277,-2284,-2291,-2300,-2310,-2322,-2341,-2359,-2371,-2378
-485,-491,-499,-507,-516,-525,-536,-544,-551,-555,-557,-558,-559,-559,-559,-559,-558,-556,-550,-543,-532,-520,-511,-505,-497,-488,-479,-470,-459,-448,-441,-437,-435,-435,-436,-437,-437,-437,-437,-438,-439,-440,-441,-444,-447,-451,-455,-461,-468,-477,-485,-490,-499,-519,-551,-589,-626,-658,-686,-713,-743,-772,-796,-818,-841,-861,-877,-892,-906,-917,-928,-939,-950,-959,-966,-973,-978,-980,-980,-979,-977,-974,-969,-956,-938,-924,-925,-940,-959,-977,-997,-1020,-1042,-1061,-1077,-1090,-1102,-1116,-1128,-1135,-1141,-1149,-1157,-1166,-1172,-1177,-1180,-1182,-1182,-1183,-1185,-1187,-1187,-1184,-1178,-1168,-1156,-1145,-1133,-1119,-1102,-1080,-1052,-1022,-996,-975,-959,-956,-972,-1007,-1052,-1092,-1121,-1150,-1179,-1208,-1237,-1265,-1289,-1305,-1318,-1329,-1345,-1364,-1383,-1404,-1426,-1448,-1470,-1492,-1511,-1530,-1550,-1569,-1586,-1605,-1626,-1645,-1659,-1671,-1681,-1692,-1703,-1715,-1727,-1736,-1743,-1749,-1752,-1753,-1752,-1751,-1747,-1740,-1729,-1715,-1702,-1690,-1680,-1670,-1659,-1647,-1632,-1620,-1613,-1605,-1589,-1569,-1546,-1523,-1507,-1507,-1514,-1527,-1545,-1572,-1603,-1637,-1669,-1697,-1719,-1735,-1746,-1757,-1767,-1779,-1790,-1802,-1815,-1827,-1835,-1841,-1844,-1845,-1843,-1838,-1829,-1817,-1803,-1789,-1775,-1766,-1757,-1747,-1737,-1726,-1710,-1689,-1665,-1644,-1622,-1598,-1576,-1554,-1528,-1494,-1464,-1439,-1430,-1438,-1451,-1462,-1472,-1481,-1486,-1490,-1496,-1503,-1509,-1509,-1502,-1501,-1507,-1515,-1521,-1524,-1525,-1525,-1524,-1525,-1530,-1537,-1543,-1545,-1549,-1555,-1568,-1591,-1622,-1650,-1673,-1692,-1709,-1721,-1732,-1741,-1752,-1764,-1778,-1793,-1808,-1822,-1834,-1845,-1855,-1862,-1870,-1877,-1883,-1889,-1895,-1902,-1908,-1914,-1920,-1924,-1928,-1931,-1935,-1940,-1945,-1947,-1950,-1953,-1957,-1961,-1965,-1968,-1971,-1976,-1981,-1986,-1990,-1992,-1993,-1994,-1994,-1995,-1997,-2000,-2005,-2011,-2016,-2022,-2028,-2034,-2041,-2048,-2055,-2063,-2072,-2080,-2086,-2092,-2100,-2108,-2118,-2129,-2140,-2152,-2169,-2189,-2211,-2234,-2259,-2281,-2299,-2313,-2324,-2332,-2337,-2339,-2339,-2338,-2337,-2334,-2333,-2333,-2330,-2324,-2316,-2310,-2306,-2306,-2308,-2310,-2314,-2321,-2332,-2343,-2354,-2363,-2372,-2382,-2393,-2400,-2404,-2407,-2408,-2406,-2404,-2400,-2397,-2395,-2393,-2390,-2388,-2387,-2386,-2385,-2383,-2382,-2382,-2382,-2382,-2382,-2382,-2380,-2378,-2374,-2370,-2363,-2354,-2344,-2332,-2322,-2318,-2316,-2313,-2306,-2296,-2283,-2270,-2260,-2253,-2247,-2239,-2228,-2217,-2206,-2197,-2189,-2185,-2183,-2186,-2192,-2200,-2207,-2210,-2212,-2211,-2209,-2206,-2203,-2200,-2197,-2195,-2194,-2192,-2188,-2181,-2173,-2164,-2156,-2147,-2139,-2130,-2127,-2138,-2164,-2199,-2232,-2263,-2287,-2309,-2327,-2342,-2359,-2377,-2394,-2411,-2428,-2444,-2456,-2465,-2472,-2478,-2482,-2486,-2492,-2498,-2502,-2503,-2503,-2502,-2501,-2501,-2501,-2500,-2497,-2493,-2490,-2488,-2485,-2481,-2477,-2473,-2469,-2467,-2466,-2465,-2462,-2458,-2451,-2445,-2438,-2432,-2424,-2416,-2407,-2398,-2389,-2380,-2371,-2359,-2341,-2317,-2294,-2271,-2249,-2229,-2212,-2192,-2172,-2156,-2149,-2149,-2154,-2162,-2170,-2179,-2190,-2200,-2207,-2213,-2220,-2226,-2232,-2239,-2246,-2253,-2260,-2266,-2274,-2282,-2289,-2297,-2304,-2310,-2318,-2329,-2347,-2368,-2385
-561,-560,-557,-555,-557,-566,-580,-595,-607,-611,-612,-613,-616,-618,-619,-619,-618,-616,-611,-602,-591,-580,-571,-563,-555,-545,-534,-521,-509,-494,-474,-456,-446,-443,-443,-445,-447,-448,-447,-447,-448,-448,-449,-450,-452,-455,-459,-465,-473,-483,-493,-502,-513,-531,-555,-589,-629,-667,-696,-722,-747,-771,-794,-817,-836,-852,-869,-890,-910,-926,-940,-952,-963,-974,-986,-996,-1002,-1006,-1011,-1016,-1019,-1019,-1018,-1017,-1009,-993,-977,-967,-968,-979,-994,-1008,-1024,-1045,-1066,-1087,-1110,-1131,-1147,-1158,-1165,-1169,-1173,-1179,-1187,-1194,-1199,-1202,-1205,-1207,-1209,-1210,-1213,-1214,-1213,-1209,-1205,-1197,-1184,-1164,-1140,-1115,-1088,-1060,-1038,-1024,-1015,-1006,-997,-998,-1015,-1037,-1059,-1083,-1103,-1122,-1143,-1168,-1191,-1216,-1244,-1273,-1303,-1335,-1367,-1394,-1419,-1443,-1464,-1481,-1496,-1514,-1531,-1550,-1572,-1599,-1623,-1643,-1659,-1674,-1686,-1697,-1708,-1719,-1730,-1740,-1749,-1758,-1763,-1765,-1766,-1766,-1764,-1760,-1752,-1745,-1738,-1730,-1721,-1711,-1699,-1686,-1676,-1668,-1660,-1646,-1631,-1618,-1604,-1587,-1572,-1560,-1559,-1568,-1586,-1608,-1637,-1667,-1696,-1720,-1740,-1754,-1767,-1779,-1792,-1803,-1811,-1820,-1831,-1842,-1852,-1858,-1861,-1861,-1859,-1852,-1843,-1832,-1820,-1809,-1799,-1788,-1776,-1762,-1744,-1726,-1708,-1687,-1660,-1632,-1606,-1584,-1561,-1539,-1515,-1489,-1457,-1428,-1417,-1425,-1443,-1462,-1477,-1492,-1506,-1518,-1525,-1529,-1530,-1525,-1521,-1524,-1533,-1542,-1549,-1554,-1558,-1560,-1562,-1562,-1564,-1568,-1572,-1575,-1576,-1577,-1578,-1580,-1588,-1605,-1628,-1656,-1682,-1703,-1721,-1738,-1752,-1764,-1777,-1790,-1802,-1813,-1826,-1840,-1852,-1863,-1873,-1881,-1886,-1890,-1897,-1904,-1910,-1916,-1921,-1925,-1930,-1935,-1938,-1942,-1946,-1951,-1956,-1960,-1965,-1969,-1972,-1975,-1979,-1983,-1987,-1992,-1997,-2001,-2004,-2007,-2011,-2014,-2016,-2017,-2019,-2022,-2026,-2030,-2034,-2037,-2042,-2047,-2054,-2060,-2067,-2073,-2079,-2085,-2091,-2097,-2104,-2111,-2118,-2125,-2134,-2144,-2159,-2178,-2194,-2209,-2224,-2243,-2261,-2280,-2303,-2326,-2343,-2353,-2359,-2362,-2364,-2367,-2370,-2370,-2368,-2363,-2356,-2353,-2351,-2351,-2351,-2354,-2356,-2362,-2371,-2380,-2387,-2395,-2403,-2411,-2416,-2418,-2418,-2418,-2419,-2417,-2415,-2414,-2413,-2411,-2408,-2405,-2403,-2403,-2404,-2404,-2405,-2405,-2405,-2404,-2402,-2401,-2399,-2395,-2389,-2380,-2370,-2362,-2357,-2354,-2351,-2345,-2334,-2322,-2310,-2298,-2287,-2278,-2271,-2264,-2253,-2241,-2228,-2219,-2213,-2211,-2209,-2209,-2212,-2216,-2221,-2226,-2229,-2230,-2228,-2224,-2220,-2218,-2217,-2216,-2215,-2214,-2212,-2211,-2208,-2206,-2204,-2201,-2196,-2187,-2174,-2156,-2142,-2142,-2159,-2189,-2221,-2253,-2280,-2305,-2323,-2340,-2358,-2375,-2391,-2408,-2423,-2436,-2450,-2465,-2478,-2487,-2494,-2500,-2505,-2509,-2514,-2517,-2519,-2518,-2517,-2516,-2515,-2515,-2514,-2511,-2508,-2506,-2505,-2502,-2499,-2497,-2496,-2495,-2495,-2492,-2486,-2480,-2474,-2470,-2464,-2456,-2445,-2435,-2426,-2417,-2410,-2401,-2391,-2381,-2371,-2360,-2344,-2323,-2300,-2275,-2251,-2227,-2203,-2182,-2169,-2165,-2168,-2174,-2181,-2189,-2197,-2204,-2210,-2218,-2227,-2234,-2241,-2248,-2254,-2261,-2267,-2274,-2280,-2288,-2295,-2302,-2308,-2315,-2323,-2331,-2343,-2362
-639,-641,-640,-637,-633,-634,-640,-650,-656,-658,-656,-656,-660,-669,-678,-683,-679,-674,-666,-659,-654,-647,-634,-622,-618,-616,-606,-588,-567,-542,-516,-494,-479,-466,-457,-456,-458,-461,-462,-461,-460,-460,-461,-463,-465,-469,-474,-481,-489,-496,-503,-512,-527,-555,-592,-632,-667,-700,-732,-763,-788,-810,-830,-851,-868,-883,-897,-910,-924,-940,-953,-965,-976,-990,-1003,-1016,-1030,-1041,-1045,-1047,-1052,-1058,-1062,-1066,-1065,-1060,-1052,-1043,-1034,-1033,-1038,-1043,-1045,-1048,-1061,-1087,-1115,-1136,-1152,-1165,-1176,-1186,-1194,-1200,-1206,-1215,-1222,-1228,-1231,-1234,-1237,-1240,-1243,-1246,-1247,-1245,-1240,-1234,-1227,-1217,-1205,-1188,-1169,-1144,-1111,-1079,-1059,-1051,-1045,-1039,-1029,-1019,-1015,-1018,-1027,-1043,-1064,-1091,-1124,-1168,-1212,-1248,-1280,-1310,-1333,-1350,-1366,-1383,-1399,-1413,-1430,-1450,-1472,-1499,-1531,-1563,-1592,-1618,-1640,-1659,-1678,-1693,-1707,-1719,-1731,-1745,-1756,-1766,-1773,-1777,-1779,-1780,-1780,-1779,-1776,-1771,-1766,-1759,-1752,-1743,-1731,-1719,-1710,-1701,-1690,-1677,-1664,-1655,-1649,-1644,-1639,-1629,-1619,-1616,-1626,-1651,-1679,-1704,-1727,-1745,-1760,-1774,-1785,-1794,-1804,-1816,-1828,-1839,-1850,-1860,-1869,-1875,-1878,-1880,-1877,-1870,-1859,-1846,-1836,-1827,-1818,-1806,-1792,-1776,-1756,-1731,-1708,-1690,-1672,-1648,-1620,-1594,-1572,-1558,-1554,-1555,-1548,-1534,-1518,-1505,-1499,-1501,-1504,-1507,-1510,-1517,-1528,-1544,-1558,-1567,-1571,-1573,-1573,-1573,-1574,-1576,-1577,-1579,-1581,-1584,-1586,-1588,-1588,-1589,-1590,-1593,-1596,-1599,-1601,-1602,-1605,-1614,-1630,-1648,-1669,-1690,-1715,-1739,-1759,-1774,-1789,-1804,-1818,-1833,-1847,-1859,-1870,-1879,-1884,-1887,-1890,-1894,-1900,-1907,-1915,-1922,-1928,-1933,-1937,-1941,-1945,-1951,-1957,-1963,-1969,-1974,-1978,-1982,-1986,-1990,-1994,-1998,-2002,-2006,-2010,-2014,-2018,-2021,-2025,-2028,-2031,-2034,-2038,-2042,-2048,-2053,-2058,-2062,-2065,-2068,-2072,-2075,-2079,-2084,-2090,-2097,-2103,-2109,-2115,-2121,-2128,-2133,-2138,-2145,-2154,-2167,-2178,-2189,-2202,-2217,-2233,-2250,-2274,-2301,-2326,-2342,-2357,-2369,-2378,-2384,-2388,-2391,-2393,-2394,-2395,-2395,-2394,-2393,-2391,-2390,-2391,-2394,-2400,-2405,-2409,-2414,-2421,-2427,-2432,-2434,-2434,-2433,-2434,-2432,-2429,-2426,-2423,-2419,-2418,-2419,-2420,-2421,-2422,-2423,-2423,-2422,-2420,-2419,-2417,-2414,-2409,-2403,-2399,-2397,-2394,-2389,-2381,-2370,-2357,-2344,-2332,-2321,-2313,-2304,-2295,-2283,-2270,-2259,-2250,-2245,-2242,-2239,-2236,-2234,-2235,-2239,-2243,-2246,-2246,-2244,-2241,-2237,-2235,-2233,-2233,-2233,-2233,-2232,-2230,-2229,-2228,-2227,-2226,-2224,-2220,-2215,-2208,-2199,-2187,-2175,-2170,-2179,-2203,-2234,-2262,-2284,-2303,-2322,-2340,-2357,-2374,-2392,-2409,-2424,-2440,-2455,-2470,-2482,-2494,-2505,-2513,-2518,-2522,-2524,-2527,-2530,-2532,-2532,-2533,-2533,-2533,-2532,-2530,-2528,-2527,-2527,-2527,-2524,-2521,-2518,-2517,-2515,-2511,-2506,-2502,-2497,-2491,-2484,-2477,-2467,-2459,-2452,-2446,-2438,-2431,-2422,-2414,-2404,-2394,-2381,-2362,-2335,-2306,-2280,-2257,-2235,-2213,-2196,-2187,-2186,-2190,-2195,-2201,-2206,-2211,-2216,-2223,-2232,-2241,-2248,-2255,-2263,-2271,-2279,-2285,-2291,-2297,-2303,-2310,-2317,-2322,-2327,-2334,-2345
-682,-686,-689,-691,-694,-697,-702,-706,-710,-713,-715,-713,-712,-714,-725,-736,-740,-738,-732,-721,-705,-692,-686,-682,-680,-677,-668,-649,-622,-598,-578,-552,-521,-498,-482,-476,-477,-481,-483,-483,-480,-479,-478,-480,-483,-487,-491,-495,-500,-506,-513,-523,-534,-551,-575,-604,-632,-662,-692,-723,-757,-792,-820,-844,-867,-888,-907,-926,-942,-956,-969,-983,-997,-1010,-1021,-1032,-1043,-1056,-1067,-1073,-1078,-1082,-1088,-1095,-1102,-1109,-1114,-1118,-1122,-1124,-1122,-1118,-1116,-1113,-1107,-1107,-1119,-1140,-1160,-1173,-1184,-1196,-1208,-1217,-1225,-1234,-1244,-1252,-1258,-1262,-1265,-1269,-1273,-1277,-1279,-1279,-1275,-1269,-1263,-1258,-1248,-1231,-1209,-1181,-1157,-1142,-1135,-1136,-1140,-1143,-1134,-1114,-1091,-1070,-1051,-1043,-1049,-1063,-1085,-1115,-1150,-1182,-1206,-1222,-1238,-1258,-1284,-1312,-1343,-1376,-1406,-1432,-1457,-1484,-1511,-1540,-1573,-1605,-1626,-1644,-1664,-1683,-1699,-1715,-1731,-1746,-1759,-1771,-1781,-1788,-1792,-1795,-1796,-1797,-1796,-1793,-1789,-1784,-1778,-1771,-1761,-1748,-1735,-1722,-1710,-1699,-1693,-1690,-1688,-1684,-1675,-1664,-1653,-1643,-1642,-1656,-1680,-1704,-1724,-1743,-1760,-1778,-1795,-1810,-1822,-1835,-1848,-1860,-1870,-1881,-1891,-1898,-1901,-1901,-1898,-1891,-1877,-1860,-1848,-1840,-1834,-1826,-1813,-1794,-1771,-1752,-1735,-1715,-1695,-1678,-1661,-1648,-1647,-1651,-1655,-1659,-1658,-1652,-1640,-1630,-1623,-1620,-1611,-1597,-1581,-1564,-1551,-1549,-1555,-1565,-1573,-1577,-1579,-1578,-1578,-1579,-1582,-1587,-1593,-1598,-1602,-1606,-1610,-1613,-1615,-1617,-1617,-1618,-1618,-1616,-1613,-1610,-1612,-1621,-1636,-1657,-1683,-1711,-1735,-1755,-1771,-1784,-1795,-1808,-1822,-1832,-1838,-1844,-1851,-1859,-1866,-1874,-1884,-1894,-1902,-1909,-1915,-1921,-1926,-1932,-1938,-1944,-1950,-1958,-1966,-1974,-1980,-1987,-1993,-1997,-2002,-2006,-2010,-2014,-2018,-2022,-2026,-2030,-2033,-2036,-2039,-2042,-2046,-2051,-2056,-2060,-2064,-2069,-2074,-2080,-2085,-2089,-2092,-2094,-2097,-2100,-2104,-2109,-2114,-2119,-2124,-2129,-2133,-2138,-2144,-2151,-2158,-2166,-2174,-2184,-2194,-2204,-2218,-2234,-2251,-2270,-2294,-2319,-2342,-2364,-2382,-2395,-2403,-2409,-2414,-2418,-2421,-2422,-2422,-2422,-2421,-2421,-2423,-2426,-2427,-2428,-2430,-2434,-2440,-2446,-2450,-2450,-2450,-2449,-2448,-2446,-2445,-2442,-2440,-2440,-2439,-2439,-2439,-2440,-2439,-2437,-2436,-2435,-2433,-2431,-2429,-2428,-2428,-2428,-2426,-2419,-2408,-2396,-2383,-2371,-2359,-2349,-2340,-2329,-2316,-2304,-2296,-2289,-2286,-2284,-2279,-2271,-2263,-2258,-2259,-2262,-2266,-2266,-2262,-2258,-2256,-2255,-2255,-2256,-2255,-2254,-2252,-2251,-2250,-2249,-2247,-2246,-2245,-2244,-2241,-2237,-2234,-2231,-2227,-2221,-2214,-2206,-2202,-2206,-2221,-2245,-2273,-2302,-2328,-2350,-2369,-2386,-2402,-2416,-2431,-2447,-2462,-2477,-2491,-2506,-2518,-2527,-2534,-2539,-2544,-2548,-2553,-2558,-2560,-2559,-2556,-2553,-2552,-2552,-2552,-2552,-2551,-2550,-2547,-2543,-2540,-2538,-2535,-2531,-2526,-2523,-2521,-2518,-2514,-2506,-2497,-2490,-2485,-2480,-2476,-2472,-2464,-2452,-2437,-2424,-2409,-2392,-2371,-2351,-2330,-2310,-2287,-2265,-2242,-2223,-2212,-2210,-2212,-2215,-2218,-2222,-2227,-2233,-2239,-2246,-2252,-2259,-2266,-2274,-2282,-2290,-2297,-2303,-2310,-2317,-2325,-2332,-2339,-2345
-710,-719,-725,-729,-732,-735,-737,-740,-743,-748,-755,-760,-763,-765,-769,-773,-774,-773,-770,-766,-761,-754,-748,-740,-732,-720,-703,-687,-673,-654,-627,-598,-570,-543,-518,-502,-498,-500,-504,-506,-510,-513,-516,-517,-518,-519,-520,-521,-525,-535,-551,-573,-603,-633,-657,-678,-695,-711,-718,-722,-735,-765,-801,-833,-858,-880,-900,-924,-945,-957,-964,-976,-991,-1008,-1025,-1041,-1054,-1066,-1078,-1088,-1097,-1105,-1113,-1121,-1128,-1135,-1143,-1151,-1156,-1161,-1166,-1171,-1173,-1172,-1168,-1159,-1153,-1156,-1168,-1184,-1201,-1212,-1222,-1232,-1242,-1250,-1257,-1266,-1276,-1283,-1287,-1290,-1295,-1299,-1302,-1304,-1305,-1301,-1293,-1282,-1273,-1263,-1251,-1240,-1232,-1227,-1226,-1224,-1220,-1209,-1194,-1174,-1152,-1131,-1116,-1107,-1105,-1106,-1111,-1121,-1143,-1173,-1202,-1225,-1242,-1256,-1270,-1286,-1312,-1346,-1382,-1415,-1446,-1471,-1489,-1507,-1530,-1555,-1575,-1594,-1613,-1635,-1663,-1695,-1722,-1742,-1759,-1775,-1787,-1796,-1802,-1805,-1808,-1810,-1811,-1811,-1809,-1806,-1801,-1796,-1790,-1781,-1768,-1755,-1745,-1737,-1731,-1726,-1721,-1715,-1708,-1699,-1688,-1674,-1669,-1677,-1695,-1713,-1728,-1742,-1759,-1777,-1795,-1813,-1832,-1847,-1860,-1871,-1883,-1894,-1904,-1912,-1916,-1917,-1915,-1907,-1893,-1877,-1863,-1852,-1844,-1836,-1826,-1813,-1800,-1785,-1767,-1746,-1723,-1703,-1690,-1691,-1702,-1713,-1722,-1728,-1729,-1725,-1720,-1717,-1717,-1711,-1700,-1688,-1674,-1654,-1630,-1609,-1594,-1588,-1590,-1595,-1599,-1598,-1595,-1594,-1597,-1604,-1612,-1619,-1626,-1631,-1634,-1634,-1632,-1630,-1628,-1627,-1627,-1631,-1636,-1641,-1643,-1642,-1643,-1647,-1657,-1671,-1689,-1710,-1730,-1744,-1756,-1766,-1776,-1784,-1789,-1794,-1804,-1822,-1844,-1860,-1869,-1874,-1880,-1885,-1888,-1892,-1900,-1909,-1920,-1929,-1936,-1942,-1950,-1960,-1971,-1980,-1988,-1996,-2004,-2010,-2015,-2020,-2024,-2029,-2033,-2037,-2041,-2047,-2051,-2055,-2058,-2060,-2063,-2068,-2072,-2076,-2081,-2086,-2092,-2098,-2102,-2105,-2111,-2115,-2119,-2122,-2126,-2129,-2133,-2135,-2138,-2142,-2147,-2152,-2157,-2162,-2168,-2174,-2181,-2188,-2196,-2206,-2216,-2230,-2247,-2266,-2287,-2308,-2328,-2346,-2364,-2383,-2400,-2413,-2424,-2433,-2439,-2442,-2443,-2444,-2446,-2449,-2451,-2451,-2451,-2452,-2453,-2457,-2460,-2464,-2468,-2469,-2466,-2464,-2462,-2462,-2462,-2461,-2460,-2459,-2458,-2456,-2454,-2452,-2452,-2451,-2450,-2449,-2448,-2448,-2449,-2449,-2447,-2441,-2432,-2422,-2412,-2401,-2389,-2377,-2364,-2351,-2341,-2334,-2331,-2329,-2328,-2325,-2317,-2306,-2295,-2289,-2287,-2289,-2291,-2288,-2282,-2276,-2274,-2275,-2276,-2277,-2276,-2274,-2271,-2269,-2269,-2267,-2266,-2264,-2264,-2263,-2260,-2257,-2254,-2250,-2248,-2246,-2244,-2241,-2236,-2231,-2226,-2227,-2239,-2264,-2299,-2334,-2362,-2382,-2396,-2409,-2421,-2432,-2443,-2458,-2477,-2496,-2513,-2528,-2541,-2551,-2560,-2567,-2572,-2576,-2579,-2581,-2581,-2580,-2580,-2579,-2579,-2577,-2575,-2573,-2573,-2571,-2569,-2564,-2560,-2556,-2552,-2548,-2545,-2542,-2538,-2534,-2530,-2525,-2519,-2514,-2511,-2507,-2502,-2493,-2482,-2469,-2457,-2444,-2429,-2410,-2387,-2365,-2345,-2323,-2302,-2279,-2259,-2243,-2234,-2231,-2232,-2234,-2237,-2240,-2245,-2249,-2253,-2259,-2266,-2273,-2281,-2288,-2295,-2301,-2307,-2314,-2320,-2327,-2333,-2340
-721,-735,-746,-757,-768,-777,-782,-783,-781,-781,-784,-790,-795,-799,-803,-804,-804,-803,-803,-803,-803,-799,-788,-776,-763,-751,-739,-728,-715,-693,-667,-642,-619,-603,-592,-582,-573,-565,-560,-559,-566,-580,-594,-601,-603,-605,-609,-606,-602,-605,-621,-646,-676,-704,-732,-760,-787,-808,-826,-826,-807,-791,-799,-820,-846,-873,-901,-921,-937,-952,-966,-981,-996,-1014,-1029,-1043,-1056,-1069,-1080,-1091,-1103,-1115,-1128,-1141,-1149,-1155,-1161,-1168,-1175,-1183,-1192,-1201,-1208,-1213,-1216,-1217,-1215,-1211,-1208,-1211,-1221,-1233,-1240,-1245,-1252,-1262,-1271,-1279,-1287,-1296,-1305,-1312,-1318,-1322,-1325,-1328,-1329,-1328,-1324,-1317,-1308,-1299,-1293,-1291,-1289,-1285,-1279,-1269,-1254,-1234,-1213,-1196,-1182,-1175,-1175,-1180,-1183,-1180,-1175,-1174,-1185,-1211,-1245,-1278,-1307,-1329,-1346,-1358,-1366,-1377,-1397,-1423,-1446,-1463,-1474,-1483,-1492,-1508,-1529,-1548,-1567,-1596,-1634,-1671,-1704,-1731,-1754,-1772,-1787,-1800,-1808,-1813,-1816,-1819,-1822,-1823,-1823,-1820,-1817,-1814,-1809,-1803,-1797,-1791,-1783,-1775,-1768,-1761,-1752,-1745,-1739,-1735,-1731,-1725,-1720,-1718,-1723,-1733,-1748,-1765,-1783,-1799,-1815,-1831,-1847,-1861,-1873,-1885,-1896,-1909,-1920,-1928,-1932,-1933,-1933,-1928,-1918,-1903,-1888,-1875,-1866,-1856,-1845,-1832,-1817,-1801,-1783,-1764,-1745,-1730,-1728,-1737,-1749,-1763,-1779,-1794,-1803,-1802,-1797,-1790,-1784,-1778,-1771,-1762,-1744,-1718,-1692,-1669,-1649,-1638,-1635,-1638,-1639,-1639,-1635,-1629,-1624,-1625,-1629,-1636,-1643,-1650,-1656,-1657,-1655,-1653,-1652,-1652,-1654,-1658,-1664,-1672,-1677,-1680,-1681,-1681,-1680,-1679,-1676,-1675,-1675,-1677,-1683,-1693,-1704,-1710,-1716,-1724,-1739,-1759,-1783,-1800,-1807,-1809,-1814,-1821,-1829,-1842,-1860,-1877,-1891,-1904,-1913,-1921,-1929,-1939,-1949,-1959,-1969,-1979,-1988,-1996,-2005,-2011,-2016,-2021,-2026,-2031,-2037,-2045,-2053,-2060,-2067,-2071,-2075,-2078,-2083,-2088,-2094,-2098,-2103,-2108,-2112,-2116,-2120,-2124,-2129,-2134,-2138,-2143,-2147,-2151,-2155,-2158,-2161,-2164,-2168,-2173,-2178,-2182,-2188,-2193,-2198,-2203,-2209,-2216,-2224,-2234,-2247,-2262,-2275,-2289,-2305,-2323,-2342,-2361,-2382,-2402,-2419,-2433,-2443,-2449,-2454,-2459,-2464,-2467,-2470,-2471,-2472,-2473,-2474,-2477,-2481,-2485,-2485,-2481,-2477,-2474,-2474,-2474,-2474,-2473,-2473,-2472,-2471,-2469,-2469,-2470,-2470,-2471,-2470,-2469,-2469,-2469,-2468,-2467,-2464,-2459,-2455,-2450,-2441,-2429,-2413,-2401,-2391,-2384,-2378,-2374,-2369,-2361,-2350,-2341,-2334,-2329,-2324,-2319,-2314,-2308,-2302,-2298,-2297,-2298,-2300,-2299,-2296,-2292,-2291,-2290,-2290,-2288,-2287,-2285,-2283,-2282,-2280,-2277,-2274,-2271,-2267,-2264,-2262,-2260,-2258,-2256,-2254,-2252,-2252,-2262,-2285,-2313,-2338,-2359,-2379,-2396,-2411,-2422,-2433,-2444,-2458,-2474,-2492,-2509,-2526,-2542,-2555,-2566,-2573,-2578,-2583,-2588,-2593,-2598,-2601,-2603,-2604,-2602,-2599,-2596,-2592,-2588,-2583,-2579,-2576,-2573,-2568,-2563,-2559,-2557,-2554,-2551,-2547,-2543,-2538,-2534,-2530,-2525,-2520,-2514,-2507,-2498,-2484,-2467,-2449,-2435,-2423,-2412,-2397,-2379,-2358,-2338,-2315,-2292,-2270,-2255,-2249,-2249,-2250,-2251,-2254,-2260,-2265,-2271,-2276,-2280,-2285,-2289,-2294,-2298,-2303,-2308,-2314,-2319,-2324,-2329
-684,-709,-735,-758,-776,-792,-806,-816,-824,-824,-821,-822,-826,-831,-833,-834,-834,-835,-836,-837,-836,-830,-817,-801,-788,-779,-772,-763,-748,-731,-713,-695,-681,-674,-670,-663,-651,-639,-628,-627,-639,-658,-678,-693,-700,-702,-702,-703,-703,-708,-715,-722,-733,-756,-788,-817,-842,-869,-889,-898,-895,-883,-872,-864,-860,-862,-875,-895,-924,-955,-974,-980,-991,-1008,-1024,-1039,-1055,-1068,-1081,-1094,-1106,-1118,-1131,-1146,-1159,-1167,-1173,-1182,-1191,-1199,-1208,-1216,-1223,-1230,-1237,-1244,-1250,-1256,-1260,-1263,-1266,-1271,-1273,-1273,-1275,-1279,-1287,-1294,-1302,-1310,-1319,-1327,-1335,-1342,-1346,-1349,-1350,-1351,-1351,-1347,-1339,-1331,-1324,-1319,-1315,-1312,-1308,-1300,-1287,-1272,-1256,-1241,-1234,-1235,-1244,-1259,-1268,-1272,-1266,-1258,-1252,-1250,-1258,-1281,-1313,-1345,-1373,-1397,-1419,-1441,-1466,-1494,-1521,-1543,-1557,-1567,-1577,-1589,-1601,-1618,-1634,-1650,-1668,-1689,-1710,-1729,-1745,-1762,-1781,-1797,-1808,-1816,-1822,-1827,-1830,-1833,-1835,-1835,-1833,-1831,-1827,-1824,-1820,-1817,-1814,-1811,-1806,-1799,-1791,-1783,-1775,-1770,-1769,-1768,-1769,-1769,-1769,-1769,-1769,-1773,-1780,-1794,-1814,-1835,-1855,-1874,-1888,-1898,-1909,-1922,-1935,-1943,-1948,-1950,-1949,-1946,-1938,-1924,-1908,-1896,-1886,-1873,-1860,-1847,-1834,-1819,-1806,-1794,-1783,-1776,-1779,-1792,-1808,-1822,-1831,-1839,-1845,-1847,-1843,-1835,-1826,-1820,-1813,-1801,-1785,-1767,-1750,-1735,-1727,-1723,-1717,-1711,-1706,-1701,-1693,-1682,-1671,-1661,-1656,-1659,-1666,-1674,-1682,-1688,-1689,-1686,-1684,-1683,-1683,-1684,-1689,-1695,-1702,-1707,-1710,-1710,-1709,-1706,-1702,-1697,-1688,-1672,-1653,-1640,-1634,-1633,-1635,-1642,-1655,-1671,-1683,-1695,-1710,-1728,-1747,-1771,-1797,-1824,-1848,-1867,-1880,-1891,-1899,-1908,-1919,-1929,-1938,-1948,-1958,-1967,-1975,-1983,-1990,-1996,-2000,-2005,-2011,-2018,-2024,-2032,-2040,-2048,-2057,-2067,-2076,-2083,-2090,-2095,-2100,-2105,-2109,-2114,-2118,-2123,-2127,-2131,-2135,-2139,-2144,-2150,-2154,-2158,-2162,-2167,-2171,-2175,-2179,-2184,-2189,-2194,-2200,-2205,-2209,-2214,-2219,-2223,-2228,-2235,-2242,-2248,-2256,-2265,-2274,-2284,-2297,-2312,-2329,-2346,-2365,-2385,-2404,-2420,-2435,-2448,-2459,-2468,-2474,-2479,-2483,-2487,-2489,-2491,-2493,-2495,-2496,-2495,-2493,-2491,-2490,-2489,-2488,-2487,-2486,-2486,-2486,-2486,-2486,-2487,-2489,-2491,-2492,-2492,-2492,-2491,-2490,-2489,-2487,-2484,-2481,-2479,-2477,-2473,-2466,-2458,-2449,-2439,-2428,-2417,-2406,-2396,-2386,-2378,-2371,-2364,-2358,-2350,-2342,-2334,-2328,-2324,-2321,-2321,-2321,-2319,-2315,-2312,-2311,-2311,-2310,-2309,-2307,-2306,-2304,-2303,-2301,-2297,-2294,-2291,-2288,-2286,-2284,-2282,-2281,-2280,-2280,-2279,-2281,-2286,-2300,-2321,-2342,-2359,-2376,-2392,-2406,-2418,-2429,-2438,-2448,-2461,-2477,-2492,-2508,-2525,-2543,-2559,-2573,-2585,-2593,-2599,-2602,-2607,-2612,-2617,-2619,-2619,-2618,-2617,-2614,-2609,-2603,-2599,-2596,-2596,-2595,-2592,-2585,-2579,-2573,-2566,-2558,-2553,-2550,-2547,-2544,-2541,-2538,-2533,-2526,-2518,-2508,-2498,-2487,-2479,-2471,-2463,-2450,-2434,-2416,-2394,-2366,-2336,-2310,-2289,-2274,-2268,-2269,-2271,-2274,-2277,-2280,-2283,-2287,-2289,-2292,-2295,-2298,-2301,-2305,-2310,-2315,-2319,-2323,-2327
-671,-695,-721,-750,-777,-799,-811,-822,-832,-842,-851,-859,-865,-868,-870,-869,-867,-866,-866,-864,-862,-857,-848,-836,-827,-823,-820,-807,-788,-770,-756,-747,-740,-730,-719,-707,-693,-679,-670,-676,-695,-714,-732,-750,-773,-790,-797,-793,-789,-797,-813,-825,-828,-834,-845,-860,-879,-904,-930,-952,-966,-970,-965,-953,-935,-913,-890,-883,-898,-924,-950,-974,-996,-1019,-1039,-1056,-1070,-1083,-1095,-1105,-1112,-1120,-1133,-1148,-1161,-1172,-1180,-1189,-1199,-1208,-1216,-1223,-1231,-1239,-1247,-1255,-1264,-1273,-1281,-1289,-1296,-1302,-1307,-1311,-1313,-1313,-1314,-1318,-1322,-1328,-1335,-1342,-1350,-1357,-1364,-1369,-1373,-1373,-1374,-1373,-1369,-1362,-1353,-1345,-1340,-1337,-1333,-1329,-1326,-1320,-1313,-1307,-1308,-1314,-1324,-1335,-1345,-1349,-1347,-1342,-1334,-1320,-1303,-1289,-1292,-1315,-1344,-1371,-1396,-1421,-1443,-1464,-1492,-1523,-1551,-1575,-1598,-1618,-1635,-1650,-1664,-1677,-1691,-1708,-1726,-1743,-1757,-1771,-1783,-1793,-1803,-1813,-1822,-1829,-1836,-1841,-1845,-1848,-1850,-1850,-1850,-1849,-1847,-1844,-1843,-1842,-1840,-1837,-1833,-1827,-1822,-1817,-1814,-1810,-1808,-1807,-1808,-1811,-1813,-1814,-1816,-1820,-1830,-1845,-1863,-1882,-1898,-1912,-1926,-1939,-1950,-1957,-1962,-1965,-1965,-1962,-1955,-1943,-1927,-1914,-1905,-1899,-1892,-1882,-1869,-1855,-1842,-1829,-1819,-1816,-1824,-1838,-1852,-1862,-1871,-1877,-1880,-1878,-1874,-1866,-1859,-1854,-1850,-1844,-1835,-1823,-1808,-1796,-1792,-1791,-1791,-1790,-1787,-1777,-1761,-1746,-1733,-1722,-1720,-1724,-1728,-1731,-1735,-1740,-1743,-1740,-1733,-1726,-1720,-1716,-1717,-1721,-1728,-1733,-1736,-1736,-1735,-1734,-1734,-1734,-1729,-1716,-1698,-1679,-1661,-1646,-1639,-1638,-1640,-1642,-1645,-1650,-1661,-1684,-1718,-1760,-1799,-1830,-1855,-1873,-1884,-1894,-1902,-1911,-1919,-1927,-1936,-1945,-1953,-1962,-1971,-1979,-1986,-1993,-1999,-2005,-2011,-2018,-2025,-2031,-2037,-2043,-2049,-2056,-2064,-2073,-2083,-2091,-2098,-2105,-2111,-2116,-2121,-2126,-2131,-2136,-2141,-2146,-2150,-2154,-2158,-2162,-2166,-2169,-2174,-2179,-2184,-2189,-2193,-2198,-2204,-2208,-2213,-2218,-2223,-2228,-2234,-2239,-2244,-2249,-2255,-2262,-2269,-2276,-2284,-2293,-2303,-2313,-2327,-2343,-2359,-2377,-2395,-2411,-2426,-2443,-2459,-2471,-2480,-2489,-2495,-2499,-2502,-2504,-2507,-2508,-2507,-2505,-2504,-2502,-2502,-2502,-2503,-2504,-2505,-2505,-2506,-2506,-2507,-2507,-2508,-2509,-2509,-2508,-2508,-2508,-2507,-2505,-2502,-2500,-2499,-2498,-2497,-2494,-2491,-2485,-2477,-2465,-2450,-2435,-2424,-2412,-2402,-2394,-2389,-2384,-2376,-2368,-2360,-2354,-2349,-2345,-2342,-2338,-2335,-2333,-2333,-2333,-2332,-2331,-2330,-2328,-2327,-2325,-2324,-2321,-2318,-2315,-2313,-2311,-2310,-2309,-2309,-2309,-2309,-2310,-2311,-2313,-2315,-2324,-2340,-2360,-2378,-2393,-2404,-2412,-2418,-2425,-2436,-2448,-2461,-2475,-2490,-2506,-2523,-2542,-2562,-2581,-2597,-2607,-2613,-2617,-2620,-2624,-2628,-2630,-2631,-2631,-2630,-2628,-2625,-2622,-2620,-2617,-2615,-2613,-2610,-2605,-2600,-2592,-2584,-2577,-2572,-2568,-2566,-2564,-2561,-2558,-2553,-2549,-2545,-2540,-2533,-2526,-2518,-2507,-2491,-2471,-2449,-2426,-2403,-2381,-2358,-2336,-2317,-2303,-2295,-2293,-2294,-2296,-2299,-2303,-2305,-2305,-2305,-2307,-2309,-2311,-2314,-2318,-2322,-2326,-2330,-2334
-667,-699,-730,-760,-790,-816,-835,-846,-853,-860,-867,-876,-886,-895,-901,-903,-901,-898,-896,-895,-894,-891,-885,-880,-879,-882,-880,-866,-844,-820,-802,-788,-774,-759,-743,-730,-716,-705,-702,-714,-736,-759,-777,-796,-818,-844,-869,-882,-879,-870,-874,-888,-898,-903,-906,-908,-912,-924,-947,-974,-999,-1017,-1028,-1027,-1018,-1000,-974,-951,-939,-938,-951,-975,-1004,-1032,-1055,-1071,-1085,-1096,-1105,-1112,-1121,-1132,-1143,-1153,-1170,-1192,-1203,-1201,-1201,-1209,-1217,-1225,-1234,-1242,-1250,-1260,-1270,-1279,-1289,-1299,-1309,-1318,-1326,-1333,-1339,-1344,-1347,-1349,-1351,-1353,-1357,-1362,-1367,-1374,-1381,-1386,-1391,-1396,-1399,-1400,-1400,-1396,-1388,-1379,-1369,-1360,-1354,-1354,-1356,-1359,-1360,-1365,-1374,-1384,-1390,-1392,-1391,-1389,-1385,-1378,-1369,-1358,-1343,-1327,-1309,-1305,-1320,-1350,-1381,-1407,-1430,-1451,-1469,-1488,-1511,-1536,-1558,-1578,-1597,-1615,-1630,-1645,-1658,-1671,-1685,-1705,-1728,-1749,-1765,-1780,-1795,-1806,-1815,-1825,-1836,-1844,-1851,-1856,-1860,-1864,-1867,-1869,-1870,-1870,-1871,-1870,-1870,-1869,-1867,-1866,-1865,-1864,-1862,-1861,-1860,-1859,-1857,-1857,-1859,-1861,-1863,-1866,-1871,-1878,-1887,-1899,-1912,-1925,-1937,-1948,-1959,-1968,-1974,-1978,-1980,-1980,-1973,-1961,-1947,-1934,-1927,-1924,-1921,-1916,-1908,-1896,-1882,-1869,-1861,-1860,-1872,-1888,-1899,-1905,-1908,-1911,-1912,-1909,-1903,-1896,-1889,-1885,-1883,-1880,-1873,-1865,-1862,-1860,-1859,-1861,-1863,-1865,-1861,-1855,-1845,-1831,-1814,-1804,-1804,-1811,-1815,-1815,-1812,-1810,-1804,-1794,-1782,-1770,-1757,-1748,-1745,-1750,-1758,-1766,-1772,-1774,-1773,-1773,-1772,-1768,-1762,-1753,-1739,-1719,-1697,-1677,-1662,-1655,-1655,-1657,-1660,-1665,-1678,-1701,-1736,-1774,-1807,-1836,-1861,-1878,-1889,-1898,-1908,-1917,-1925,-1933,-1941,-1949,-1956,-1965,-1974,-1982,-1989,-1996,-2003,-2010,-2017,-2024,-2029,-2035,-2039,-2044,-2049,-2053,-2058,-2064,-2070,-2077,-2084,-2091,-2098,-2105,-2113,-2121,-2130,-2137,-2145,-2152,-2157,-2161,-2165,-2168,-2171,-2174,-2179,-2183,-2188,-2192,-2198,-2204,-2209,-2214,-2219,-2224,-2229,-2234,-2239,-2243,-2247,-2252,-2257,-2262,-2268,-2275,-2282,-2289,-2297,-2306,-2315,-2325,-2334,-2347,-2363,-2378,-2394,-2411,-2427,-2442,-2456,-2471,-2484,-2494,-2502,-2508,-2512,-2516,-2519,-2522,-2524,-2524,-2523,-2520,-2519,-2520,-2523,-2524,-2523,-2523,-2523,-2522,-2521,-2522,-2524,-2526,-2527,-2528,-2528,-2528,-2528,-2527,-2525,-2523,-2521,-2517,-2513,-2510,-2507,-2502,-2487,-2470,-2456,-2444,-2434,-2427,-2420,-2413,-2406,-2397,-2388,-2379,-2371,-2366,-2361,-2359,-2357,-2356,-2355,-2353,-2352,-2350,-2349,-2347,-2346,-2344,-2342,-2340,-2339,-2340,-2340,-2339,-2339,-2338,-2336,-2336,-2336,-2337,-2338,-2340,-2344,-2349,-2357,-2369,-2383,-2396,-2405,-2411,-2415,-2420,-2429,-2439,-2451,-2464,-2479,-2495,-2510,-2527,-2544,-2563,-2581,-2598,-2611,-2620,-2627,-2632,-2636,-2639,-2644,-2647,-2649,-2648,-2646,-2643,-2639,-2636,-2633,-2630,-2627,-2624,-2621,-2618,-2614,-2610,-2604,-2597,-2592,-2588,-2586,-2583,-2579,-2576,-2571,-2566,-2559,-2551,-2541,-2531,-2520,-2509,-2494,-2477,-2460,-2450,-2441,-2429,-2409,-2381,-2350,-2327,-2316,-2314,-2315,-2318,-2321,-2323,-2323,-2323,-2324,-2325,-2327,-2329,-2332,-2335,-2338,-2341
-675,-696,-726,-760,-799,-832,-855,-868,-877,-885,-893,-900,-907,-915,-923,-929,-932,-933,-932,-931,-930,-928,-926,-924,-925,-928,-929,-920,-897,-871,-848,-830,-821,-817,-812,-802,-789,-779,-774,-778,-790,-810,-834,-857,-872,-888,-906,-921,-924,-916,-910,-916,-929,-947,-963,-973,-980,-987,-995,-1009,-1027,-1050,-1071,-1085,-1088,-1082,-1067,-1048,-1029,-1018,-1015,-1019,-1034,-1051,-1066,-1079,-1090,-1100,-1108,-1118,-1136,-1157,-1176,-1187,-1195,-1205,-1217,-1222,-1219,-1215,-1217,-1223,-1230,-1239,-1249,-1260,-1270,-1280,-1288,-1297,-1308,-1319,-1328,-1336,-1345,-1354,-1363,-1371,-1377,-1382,-1387,-1389,-1392,-1394,-1398,-1401,-1406,-1411,-1416,-1420,-1422,-1421,-1417,-1409,-1397,-1386,-1378,-1380,-1393,-1409,-1418,-1422,-1422,-1421,-1419,-1417,-1414,-1412,-1410,-1406,-1401,-1396,-1390,-1379,-1363,-1345,-1330,-1329,-1342,-1362,-1389,-1417,-1442,-1467,-1492,-1517,-1542,-1567,-1590,-1611,-1631,-1650,-1664,-1673,-1681,-1692,-1705,-1720,-1738,-1755,-1771,-1786,-1799,-1810,-1821,-1831,-1842,-1852,-1860,-1867,-1875,-1881,-1887,-1892,-1895,-1897,-1898,-1900,-1900,-1901,-1902,-1902,-1902,-1903,-1904,-1905,-1904,-1905,-1908,-1912,-1915,-1917,-1920,-1923,-1924,-1926,-1932,-1941,-1950,-1961,-1972,-1982,-1989,-1994,-1997,-1998,-1994,-1984,-1970,-1959,-1952,-1946,-1941,-1939,-1939,-1939,-1936,-1930,-1923,-1918,-1921,-1929,-1935,-1939,-1941,-1944,-1942,-1934,-1925,-1919,-1915,-1913,-1911,-1909,-1907,-1905,-1903,-1904,-1905,-1906,-1908,-1914,-1920,-1922,-1918,-1908,-1896,-1890,-1892,-1894,-1894,-1891,-1883,-1870,-1859,-1847,-1832,-1813,-1797,-1788,-1790,-1797,-1805,-1811,-1815,-1817,-1818,-1815,-1810,-1802,-1793,-1781,-1763,-1742,-1722,-1704,-1691,-1684,-1682,-1682,-1682,-1689,-1708,-1740,-1780,-1812,-1836,-1854,-1870,-1882,-1891,-1899,-1907,-1916,-1925,-1934,-1943,-1952,-1961,-1970,-1979,-1987,-1994,-2001,-2006,-2012,-2018,-2025,-2031,-2036,-2041,-2044,-2048,-2052,-2057,-2061,-2066,-2071,-2077,-2084,-2090,-2098,-2107,-2115,-2121,-2129,-2135,-2141,-2147,-2154,-2161,-2166,-2171,-2177,-2182,-2187,-2191,-2197,-2202,-2208,-2214,-2220,-2226,-2231,-2236,-2241,-2246,-2251,-2256,-2261,-2266,-2271,-2276,-2282,-2288,-2294,-2301,-2308,-2315,-2323,-2331,-2340,-2349,-2358,-2370,-2382,-2395,-2409,-2425,-2440,-2455,-2470,-2484,-2496,-2506,-2513,-2520,-2526,-2531,-2535,-2536,-2536,-2535,-2535,-2535,-2536,-2536,-2535,-2536,-2538,-2539,-2539,-2540,-2543,-2545,-2547,-2548,-2549,-2550,-2550,-2550,-2550,-2546,-2540,-2534,-2530,-2527,-2526,-2523,-2513,-2500,-2486,-2476,-2466,-2456,-2447,-2439,-2431,-2421,-2410,-2399,-2390,-2385,-2382,-2381,-2379,-2377,-2375,-2374,-2372,-2370,-2368,-2365,-2363,-2361,-2361,-2361,-2362,-2361,-2360,-2359,-2358,-2356,-2355,-2354,-2353,-2354,-2356,-2360,-2365,-2371,-2378,-2385,-2393,-2400,-2405,-2411,-2417,-2427,-2438,-2450,-2463,-2477,-2489,-2503,-2516,-2530,-2544,-2561,-2580,-2598,-2612,-2624,-2633,-2639,-2643,-2647,-2652,-2658,-2662,-2663,-2661,-2657,-2651,-2646,-2643,-2642,-2642,-2641,-2639,-2636,-2631,-2626,-2622,-2618,-2613,-2609,-2604,-2599,-2596,-2592,-2589,-2586,-2582,-2576,-2569,-2560,-2551,-2544,-2538,-2529,-2517,-2501,-2481,-2460,-2437,-2410,-2382,-2358,-2344,-2339,-2339,-2340,-2342,-2343,-2342,-2340,-2339,-2340,-2340,-2341,-2342,-2344,-2346
-692,-698,-717,-742,-770,-802,-836,-871,-894,-906,-914,-921,-928,-935,-943,-950,-956,-961,-964,-966,-967,-967,-966,-967,-969,-968,-963,-951,-935,-923,-914,-908,-899,-887,-872,-861,-855,-853,-853,-847,-839,-840,-858,-883,-905,-923,-936,-947,-959,-967,-967,-962,-960,-969,-993,-1011,-1022,-1035,-1051,-1065,-1075,-1086,-1099,-1114,-1127,-1132,-1126,-1111,-1097,-1086,-1077,-1069,-1065,-1067,-1073,-1081,-1088,-1095,-1103,-1117,-1137,-1158,-1173,-1185,-1195,-1205,-1218,-1228,-1231,-1232,-1232,-1234,-1237,-1242,-1248,-1256,-1264,-1273,-1282,-1291,-1302,-1314,-1324,-1334,-1344,-1355,-1367,-1379,-1390,-1398,-1404,-1409,-1413,-1417,-1420,-1421,-1423,-1425,-1429,-1435,-1441,-1444,-1446,-1443,-1439,-1434,-1432,-1435,-1443,-1449,-1451,-1447,-1443,-1439,-1435,-1432,-1431,-1429,-1429,-1429,-1428,-1424,-1416,-1405,-1390,-1369,-1342,-1316,-1296,-1293,-1308,-1339,-1380,-1424,-1463,-1495,-1527,-1559,-1581,-1596,-1612,-1627,-1635,-1642,-1650,-1660,-1671,-1686,-1702,-1719,-1734,-1750,-1765,-1780,-1792,-1802,-1807,-1812,-1818,-1831,-1845,-1861,-1875,-1888,-1898,-1905,-1912,-1920,-1926,-1931,-1935,-1938,-1940,-1940,-1940,-1941,-1944,-1949,-1955,-1960,-1965,-1965,-1963,-1962,-1962,-1962,-1964,-1967,-1973,-1981,-1989,-1997,-2003,-2006,-2009,-2011,-2011,-2005,-1996,-1985,-1977,-1970,-1966,-1964,-1965,-1970,-1974,-1974,-1970,-1966,-1966,-1967,-1969,-1970,-1974,-1975,-1972,-1966,-1959,-1952,-1948,-1944,-1942,-1940,-1940,-1940,-1939,-1937,-1935,-1933,-1931,-1932,-1937,-1948,-1959,-1966,-1966,-1963,-1961,-1959,-1957,-1953,-1946,-1936,-1926,-1916,-1907,-1897,-1883,-1869,-1865,-1872,-1881,-1883,-1880,-1874,-1869,-1863,-1859,-1854,-1845,-1836,-1826,-1814,-1799,-1788,-1782,-1776,-1768,-1758,-1743,-1730,-1729,-1748,-1778,-1808,-1835,-1854,-1866,-1877,-1889,-1900,-1908,-1916,-1926,-1935,-1944,-1952,-1961,-1970,-1978,-1987,-1995,-2001,-2005,-2009,-2014,-2019,-2025,-2032,-2037,-2041,-2045,-2051,-2056,-2061,-2066,-2072,-2077,-2082,-2087,-2094,-2100,-2107,-2113,-2119,-2125,-2131,-2136,-2141,-2145,-2151,-2158,-2165,-2171,-2177,-2183,-2190,-2198,-2206,-2214,-2222,-2228,-2234,-2239,-2244,-2249,-2254,-2260,-2267,-2273,-2279,-2284,-2290,-2295,-2301,-2307,-2313,-2318,-2325,-2331,-2338,-2344,-2352,-2361,-2370,-2381,-2394,-2407,-2418,-2428,-2440,-2454,-2468,-2483,-2497,-2508,-2518,-2527,-2535,-2540,-2544,-2547,-2548,-2549,-2551,-2551,-2550,-2552,-2554,-2557,-2558,-2558,-2559,-2560,-2562,-2564,-2564,-2565,-2567,-2569,-2570,-2568,-2565,-2561,-2558,-2553,-2552,-2552,-2553,-2551,-2546,-2535,-2521,-2505,-2490,-2478,-2466,-2455,-2443,-2430,-2420,-2414,-2411,-2408,-2405,-2402,-2399,-2397,-2394,-2391,-2389,-2386,-2383,-2381,-2381,-2381,-2380,-2379,-2377,-2376,-2375,-2374,-2373,-2373,-2372,-2371,-2371,-2373,-2377,-2382,-2386,-2391,-2395,-2400,-2404,-2409,-2415,-2424,-2434,-2445,-2456,-2467,-2478,-2488,-2498,-2508,-2520,-2535,-2553,-2572,-2591,-2609,-2624,-2635,-2644,-2651,-2656,-2659,-2664,-2669,-2672,-2671,-2668,-2664,-2659,-2658,-2657,-2655,-2653,-2650,-2646,-2641,-2636,-2633,-2628,-2624,-2621,-2617,-2613,-2609,-2606,-2603,-2600,-2596,-2593,-2588,-2582,-2576,-2570,-2563,-2554,-2539,-2518,-2491,-2460,-2433,-2414,-2399,-2387,-2379,-2373,-2368,-2363,-2360,-2358,-2357,-2355,-2353,-2352,-2352,-2353,-2353,-2354
-787,-792,-799,-806,-815,-826,-842,-861,-886,-912,-933,-947,-956,-964,-970,-975,-979,-984,-987,-990,-992,-994,-996,-998,-1000,-1000,-998,-995,-992,-988,-984,-976,-958,-935,-915,-903,-897,-897,-895,-885,-865,-850,-858,-884,-912,-935,-954,-970,-986,-1001,-1016,-1026,-1031,-1032,-1036,-1042,-1047,-1053,-1063,-1078,-1092,-1107,-1124,-1138,-1150,-1160,-1165,-1163,-1159,-1151,-1141,-1131,-1122,-1116,-1115,-1117,-1119,-1121,-1126,-1138,-1157,-1177,-1190,-1197,-1204,-1211,-1220,-1231,-1238,-1242,-1244,-1247,-1251,-1255,-1260,-1264,-1268,-1273,-1280,-1288,-1299,-1311,-1322,-1333,-1343,-1353,-1363,-1375,-1385,-1394,-1401,-1409,-1416,-1423,-1431,-1438,-1442,-1447,-1450,-1455,-1461,-1468,-1474,-1477,-1479,-1481,-1482,-1483,-1482,-1477,-1470,-1464,-1458,-1455,-1452,-1451,-1449,-1447,-1445,-1443,-1440,-1434,-1424,-1410,-1388,-1362,-1334,-1309,-1291,-1281,-1278,-1288,-1313,-1343,-1375,-1410,-1443,-1471,-1499,-1522,-1536,-1547,-1559,-1576,-1593,-1609,-1622,-1632,-1642,-1652,-1662,-1673,-1686,-1704,-1722,-1730,-1724,-1709,-1696,-1698,-1711,-1730,-1747,-1759,-1772,-1787,-1805,-1823,-1846,-1875,-1903,-1924,-1939,-1946,-1949,-1953,-1960,-1968,-1972,-1974,-1975,-1975,-1976,-1978,-1980,-1982,-1985,-1988,-1992,-1996,-2001,-2007,-2014,-2021,-2025,-2027,-2028,-2028,-2026,-2022,-2017,-2011,-2006,-2003,-2004,-2008,-2012,-2011,-2009,-2007,-2006,-2006,-2006,-2007,-2008,-2009,-2005,-2000,-1996,-1993,-1987,-1982,-1979,-1979,-1980,-1981,-1981,-1979,-1974,-1966,-1960,-1959,-1957,-1960,-1967,-1979,-1991,-1997,-1999,-1997,-1994,-1991,-1986,-1981,-1975,-1970,-1967,-1965,-1959,-1951,-1944,-1943,-1946,-1949,-1948,-1943,-1932,-1923,-1916,-1909,-1898,-1886,-1879,-1875,-1868,-1862,-1858,-1854,-1846,-1838,-1828,-1810,-1786,-1767,-1764,-1782,-1808,-1831,-1849,-1865,-1878,-1890,-1902,-1913,-1923,-1931,-1939,-1947,-1955,-1963,-1971,-1979,-1986,-1993,-1999,-2003,-2008,-2013,-2018,-2024,-2029,-2035,-2042,-2049,-2056,-2062,-2067,-2071,-2076,-2081,-2087,-2093,-2098,-2104,-2110,-2115,-2121,-2128,-2134,-2140,-2145,-2150,-2154,-2158,-2163,-2169,-2174,-2180,-2187,-2194,-2202,-2209,-2216,-2223,-2230,-2236,-2243,-2251,-2258,-2264,-2271,-2279,-2285,-2292,-2299,-2305,-2310,-2316,-2322,-2329,-2335,-2341,-2348,-2355,-2363,-2371,-2381,-2391,-2400,-2409,-2418,-2427,-2438,-2450,-2463,-2475,-2487,-2500,-2512,-2523,-2533,-2542,-2550,-2556,-2560,-2563,-2565,-2567,-2569,-2570,-2570,-2570,-2572,-2574,-2576,-2576,-2577,-2578,-2580,-2582,-2583,-2585,-2586,-2586,-2587,-2588,-2588,-2587,-2584,-2582,-2579,-2576,-2573,-2569,-2561,-2548,-2528,-2507,-2491,-2478,-2467,-2458,-2451,-2445,-2438,-2432,-2427,-2423,-2420,-2417,-2414,-2411,-2408,-2405,-2403,-2401,-2399,-2397,-2396,-2395,-2394,-2395,-2396,-2397,-2397,-2397,-2398,-2399,-2401,-2403,-2405,-2407,-2409,-2411,-2413,-2415,-2418,-2420,-2425,-2433,-2442,-2451,-2460,-2469,-2478,-2487,-2496,-2505,-2516,-2529,-2545,-2562,-2580,-2598,-2616,-2633,-2647,-2656,-2662,-2666,-2670,-2675,-2679,-2680,-2677,-2672,-2667,-2665,-2665,-2664,-2663,-2658,-2650,-2643,-2639,-2636,-2634,-2632,-2630,-2628,-2624,-2621,-2619,-2617,-2616,-2614,-2610,-2606,-2602,-2598,-2591,-2583,-2574,-2563,-2547,-2528,-2507,-2487,-2464,-2445,-2430,-2420,-2410,-2400,-2389,-2379,-2372,-2369,-2368,-2367,-2368,-2368,-2369,-2370
-828,-845,-862,-876,-888,-897,-907,-917,-930,-944,-957,-966,-974,-981,-987,-991,-996,-1002,-1007,-1011,-1014,-1017,-1020,-1022,-1024,-1025,-1026,-1027,-1026,-1023,-1018,-1008,-997,-984,-971,-958,-946,-935,-921,-900,-877,-855,-841,-849,-872,-896,-920,-942,-962,-981,-999,-1016,-1039,-1065,-1085,-1093,-1096,-1100,-1104,-1112,-1122,-1132,-1142,-1154,-1165,-1177,-1185,-1192,-1196,-1198,-1198,-1195,-1189,-1182,-1177,-1173,-1172,-1174,-1176,-1179,-1186,-1196,-1206,-1212,-1215,-1220,-1228,-1239,-1247,-1253,-1258,-1263,-1267,-1271,-1275,-1278,-1281,-1285,-1290,-1297,-1303,-1312,-1321,-1331,-1342,-1352,-1362,-1370,-1378,-1387,-1394,-1402,-1410,-1418,-1427,-1437,-1447,-1457,-1467,-1475,-1482,-1488,-1494,-1498,-1501,-1502,-1503,-1503,-1501,-1498,-1494,-1488,-1481,-1476,-1471,-1468,-1465,-1463,-1460,-1457,-1452,-1445,-1432,-1408,-1377,-1350,-1333,-1325,-1322,-1318,-1312,-1306,-1302,-1300,-1302,-1311,-1327,-1349,-1382,-1413,-1438,-1460,-1486,-1510,-1528,-1536,-1539,-1538,-1541,-1547,-1558,-1570,-1588,-1610,-1626,-1624,-1611,-1589,-1567,-1552,-1554,-1565,-1579,-1594,-1618,-1645,-1675,-1705,-1737,-1768,-1798,-1830,-1866,-1894,-1915,-1933,-1950,-1960,-1964,-1965,-1967,-1970,-1974,-1979,-1983,-1988,-1992,-1996,-1999,-2002,-2006,-2014,-2022,-2029,-2034,-2039,-2042,-2044,-2047,-2049,-2050,-2050,-2048,-2047,-2047,-2048,-2047,-2044,-2041,-2038,-2036,-2036,-2036,-2036,-2035,-2034,-2031,-2028,-2025,-2025,-2025,-2025,-2024,-2024,-2025,-2026,-2025,-2024,-2021,-2016,-2010,-2004,-1999,-1996,-1996,-2000,-2006,-2012,-2016,-2016,-2014,-2012,-2011,-2010,-2008,-2007,-2006,-2004,-2002,-2001,-2004,-2009,-2014,-2017,-2015,-2009,-2002,-1995,-1986,-1972,-1956,-1943,-1937,-1933,-1931,-1927,-1919,-1905,-1891,-1877,-1863,-1848,-1830,-1804,-1776,-1758,-1758,-1774,-1799,-1827,-1851,-1869,-1885,-1897,-1907,-1915,-1925,-1934,-1944,-1953,-1961,-1967,-1972,-1976,-1980,-1983,-1985,-1988,-1992,-1999,-2010,-2023,-2035,-2043,-2051,-2058,-2065,-2070,-2075,-2080,-2086,-2091,-2096,-2101,-2105,-2110,-2117,-2123,-2128,-2133,-2139,-2146,-2151,-2155,-2159,-2164,-2169,-2173,-2179,-2186,-2192,-2198,-2204,-2211,-2217,-2223,-2230,-2236,-2242,-2249,-2256,-2263,-2271,-2280,-2290,-2299,-2308,-2316,-2325,-2331,-2338,-2345,-2353,-2360,-2366,-2374,-2383,-2391,-2399,-2406,-2412,-2419,-2428,-2441,-2453,-2464,-2474,-2485,-2496,-2505,-2515,-2528,-2539,-2550,-2558,-2565,-2570,-2574,-2578,-2581,-2582,-2582,-2583,-2584,-2586,-2589,-2590,-2591,-2594,-2597,-2598,-2599,-2600,-2602,-2604,-2607,-2610,-2611,-2612,-2612,-2611,-2607,-2602,-2597,-2593,-2588,-2582,-2572,-2559,-2542,-2524,-2508,-2495,-2483,-2473,-2464,-2456,-2450,-2446,-2442,-2438,-2434,-2430,-2427,-2424,-2422,-2420,-2418,-2417,-2416,-2415,-2415,-2414,-2414,-2414,-2414,-2414,-2415,-2417,-2419,-2421,-2423,-2424,-2424,-2425,-2426,-2427,-2429,-2432,-2437,-2445,-2452,-2458,-2465,-2472,-2481,-2490,-2499,-2507,-2516,-2528,-2542,-2557,-2573,-2590,-2607,-2626,-2644,-2660,-2670,-2676,-2678,-2680,-2682,-2683,-2683,-2681,-2677,-2675,-2674,-2672,-2667,-2661,-2655,-2651,-2648,-2646,-2645,-2643,-2641,-2639,-2638,-2636,-2634,-2631,-2629,-2626,-2624,-2622,-2620,-2617,-2612,-2605,-2596,-2586,-2577,-2567,-2552,-2530,-2503,-2477,-2451,-2428,-2411,-2406,-2405,-2403,-2399,-2398,-2403,-2410,-2415,-2414,-2408
-844,-857,-871,-886,-902,-918,-932,-947,-961,-972,-979,-986,-993,-999,-1004,-1010,-1016,-1022,-1028,-1034,-1037,-1041,-1043,-1045,-1047,-1048,-1049,-1049,-1050,-1050,-1051,-1051,-1049,-1042,-1027,-1009,-993,-976,-956,-935,-913,-894,-876,-861,-858,-875,-899,-918,-933,-949,-966,-983,-1004,-1023,-1033,-1040,-1056,-1082,-1106,-1124,-1140,-1156,-1168,-1179,-1189,-1199,-1208,-1215,-1219,-1223,-1227,-1230,-1232,-1235,-1236,-1236,-1235,-1235,-1232,-1228,-1225,-1227,-1233,-1240,-1244,-1248,-1254,-1262,-1269,-1275,-1280,-1285,-1288,-1292,-1294,-1295,-1297,-1299,-1302,-1307,-1311,-1317,-1323,-1330,-1340,-1351,-1361,-1369,-1378,-1386,-1394,-1402,-1411,-1418,-1425,-1433,-1443,-1454,-1465,-1478,-1491,-1501,-1508,-1512,-1515,-1517,-1519,-1520,-1520,-1520,-1518,-1513,-1507,-1501,-1494,-1488,-1484,-1481,-1479,-1476,-1470,-1458,-1437,-1414,-1391,-1373,-1365,-1362,-1360,-1359,-1357,-1352,-1343,-1332,-1320,-1311,-1304,-1301,-1303,-1314,-1333,-1357,-1379,-1399,-1413,-1420,-1422,-1427,-1433,-1439,-1446,-1462,-1482,-1499,-1505,-1502,-1486,-1467,-1449,-1442,-1449,-1466,-1491,-1524,-1559,-1592,-1625,-1659,-1688,-1712,-1734,-1759,-1781,-1799,-1822,-1857,-1891,-1910,-1920,-1928,-1936,-1945,-1955,-1964,-1971,-1977,-1982,-1987,-1990,-1995,-2000,-2007,-2018,-2029,-2039,-2045,-2050,-2056,-2061,-2066,-2070,-2073,-2074,-2074,-2075,-2076,-2076,-2076,-2075,-2073,-2070,-2067,-2066,-2065,-2066,-2065,-2064,-2062,-2059,-2057,-2056,-2056,-2058,-2059,-2058,-2058,-2060,-2061,-2062,-2060,-2057,-2051,-2046,-2041,-2036,-2032,-2035,-2040,-2044,-2045,-2043,-2039,-2037,-2036,-2035,-2036,-2037,-2036,-2037,-2040,-2045,-2052,-2060,-2066,-2066,-2062,-2058,-2052,-2045,-2038,-2033,-2028,-2021,-2013,-2006,-1999,-1989,-1977,-1961,-1938,-1910,-1888,-1870,-1850,-1829,-1813,-1797,-1785,-1784,-1799,-1819,-1836,-1849,-1858,-1864,-1869,-1878,-1891,-1905,-1917,-1925,-1932,-1937,-1939,-1938,-1940,-1948,-1958,-1968,-1979,-1992,-2005,-2015,-2025,-2034,-2042,-2050,-2056,-2061,-2065,-2067,-2072,-2078,-2085,-2092,-2099,-2105,-2111,-2117,-2123,-2130,-2136,-2142,-2148,-2154,-2159,-2164,-2170,-2175,-2181,-2188,-2194,-2201,-2207,-2213,-2219,-2224,-2230,-2236,-2242,-2248,-2253,-2259,-2266,-2274,-2283,-2292,-2303,-2313,-2322,-2331,-2340,-2348,-2355,-2364,-2373,-2382,-2390,-2398,-2404,-2407,-2411,-2419,-2430,-2440,-2451,-2462,-2472,-2484,-2494,-2504,-2515,-2526,-2537,-2549,-2559,-2567,-2576,-2582,-2586,-2589,-2592,-2593,-2594,-2594,-2595,-2598,-2600,-2603,-2605,-2608,-2610,-2612,-2614,-2616,-2619,-2622,-2626,-2627,-2628,-2628,-2627,-2626,-2624,-2622,-2620,-2618,-2616,-2613,-2603,-2585,-2563,-2541,-2525,-2512,-2503,-2494,-2485,-2476,-2469,-2462,-2456,-2452,-2448,-2445,-2442,-2439,-2437,-2436,-2434,-2433,-2432,-2432,-2432,-2433,-2433,-2434,-2434,-2435,-2436,-2438,-2439,-2440,-2440,-2440,-2439,-2439,-2440,-2441,-2444,-2450,-2458,-2464,-2470,-2476,-2483,-2490,-2498,-2504,-2511,-2520,-2531,-2544,-2558,-2573,-2588,-2605,-2624,-2642,-2657,-2669,-2679,-2685,-2689,-2692,-2695,-2698,-2698,-2695,-2691,-2688,-2684,-2678,-2673,-2668,-2665,-2662,-2660,-2659,-2658,-2657,-2656,-2655,-2654,-2651,-2648,-2646,-2645,-2644,-2642,-2638,-2634,-2629,-2623,-2615,-2608,-2599,-2588,-2574,-2556,-2531,-2502,-2475,-2456,-2447,-2449,-2457,-2466,-2472,-2475,-2474,-2477,-2481,-2480
-851,-863,-874,-885,-896,-907,-920,-935,-950,-963,-975,-985,-994,-1003,-1012,-1020,-1027,-1034,-1042,-1050,-1055,-1060,-1063,-1066,-1068,-1070,-1072,-1072,-1073,-1074,-1075,-1077,-1076,-1072,-1065,-1056,-1046,-1036,-1024,-1009,-987,-962,-940,-919,-893,-872,-867,-880,-903,-923,-939,-953,-967,-983,-999,-1015,-1032,-1048,-1067,-1089,-1110,-1132,-1154,-1173,-1188,-1204,-1218,-1229,-1237,-1243,-1250,-1254,-1256,-1259,-1262,-1266,-1269,-1271,-1273,-1276,-1279,-1280,-1281,-1283,-1284,-1286,-1288,-1291,-1295,-1299,-1302,-1305,-1309,-1311,-1312,-1313,-1314,-1317,-1320,-1323,-1326,-1329,-1332,-1337,-1342,-1349,-1357,-1365,-1375,-1384,-1393,-1401,-1409,-1417,-1426,-1435,-1443,-1451,-1461,-1472,-1484,-1496,-1507,-1516,-1521,-1525,-1529,-1532,-1534,-1536,-1536,-1535,-1532,-1526,-1520,-1514,-1508,-1503,-1499,-1496,-1488,-1474,-1459,-1449,-1442,-1437,-1432,-1428,-1419,-1407,-1397,-1389,-1380,-1371,-1364,-1361,-1358,-1353,-1345,-1333,-1318,-1307,-1299,-1296,-1295,-1297,-1300,-1307,-1313,-1321,-1336,-1354,-1368,-1374,-1374,-1366,-1357,-1351,-1354,-1369,-1391,-1418,-1450,-1482,-1510,-1536,-1563,-1588,-1614,-1644,-1672,-1696,-1718,-1745,-1779,-1812,-1838,-1856,-1868,-1876,-1883,-1892,-1904,-1918,-1931,-1943,-1952,-1960,-1968,-1978,-1986,-1995,-2006,-2016,-2026,-2038,-2050,-2058,-2065,-2072,-2079,-2085,-2088,-2090,-2092,-2093,-2094,-2095,-2096,-2097,-2098,-2098,-2096,-2095,-2094,-2094,-2093,-2094,-2093,-2092,-2090,-2089,-2087,-2086,-2085,-2085,-2086,-2087,-2089,-2090,-2090,-2090,-2088,-2087,-2084,-2081,-2080,-2079,-2078,-2076,-2072,-2070,-2066,-2063,-2061,-2061,-2063,-2065,-2069,-2076,-2085,-2095,-2103,-2109,-2107,-2100,-2091,-2085,-2082,-2081,-2081,-2079,-2075,-2067,-2056,-2042,-2027,-2013,-2001,-1990,-1981,-1971,-1955,-1934,-1914,-1900,-1889,-1879,-1873,-1875,-1884,-1893,-1900,-1904,-1901,-1891,-1879,-1867,-1855,-1847,-1846,-1850,-1856,-1860,-1862,-1868,-1881,-1898,-1916,-1935,-1954,-1969,-1981,-1991,-2000,-2007,-2013,-2018,-2018,-2017,-2016,-2022,-2033,-2046,-2058,-2069,-2077,-2085,-2093,-2101,-2110,-2119,-2128,-2136,-2143,-2150,-2157,-2163,-2170,-2177,-2184,-2192,-2199,-2206,-2212,-2218,-2224,-2230,-2236,-2242,-2248,-2255,-2262,-2268,-2275,-2281,-2288,-2295,-2302,-2312,-2324,-2333,-2339,-2345,-2351,-2358,-2366,-2375,-2383,-2389,-2395,-2403,-2412,-2421,-2430,-2441,-2451,-2461,-2470,-2481,-2492,-2502,-2512,-2523,-2534,-2545,-2556,-2567,-2577,-2585,-2592,-2599,-2602,-2603,-2604,-2606,-2607,-2609,-2610,-2613,-2616,-2618,-2619,-2621,-2623,-2625,-2627,-2630,-2634,-2638,-2640,-2641,-2641,-2642,-2642,-2642,-2641,-2640,-2638,-2636,-2632,-2624,-2611,-2594,-2576,-2556,-2539,-2524,-2512,-2500,-2490,-2482,-2477,-2472,-2468,-2465,-2463,-2460,-2458,-2456,-2454,-2453,-2452,-2452,-2452,-2452,-2451,-2451,-2450,-2451,-2452,-2453,-2454,-2455,-2454,-2453,-2451,-2453,-2456,-2458,-2461,-2467,-2473,-2478,-2483,-2489,-2495,-2500,-2505,-2510,-2516,-2522,-2531,-2542,-2554,-2565,-2578,-2591,-2609,-2632,-2652,-2668,-2682,-2694,-2701,-2705,-2708,-2712,-2714,-2712,-2706,-2700,-2695,-2691,-2688,-2684,-2681,-2680,-2679,-2678,-2675,-2674,-2673,-2672,-2672,-2671,-2670,-2670,-2668,-2664,-2660,-2655,-2649,-2644,-2640,-2636,-2631,-2626,-2619,-2609,-2596,-2581,-2562,-2542,-2527,-2523,-2524,-2529,-2535,-2546,-2554,-2554,-2550,-2544
-851,-866,-881,-893,-904,-914,-923,-933,-942,-954,-965,-975,-986,-999,-1013,-1026,-1038,-1048,-1056,-1062,-1068,-1073,-1076,-1079,-1084,-1089,-1092,-1095,-1097,-1098,-1098,-1097,-1097,-1095,-1092,-1087,-1081,-1076,-1070,-1059,-1040,-1012,-980,-951,-926,-902,-877,-863,-872,-897,-926,-948,-962,-975,-992,-1012,-1032,-1052,-1071,-1089,-1106,-1124,-1141,-1159,-1178,-1195,-1208,-1222,-1235,-1247,-1254,-1260,-1266,-1270,-1274,-1278,-1282,-1286,-1289,-1294,-1300,-1307,-1311,-1315,-1317,-1319,-1321,-1320,-1319,-1319,-1319,-1321,-1323,-1326,-1328,-1330,-1330,-1332,-1336,-1340,-1344,-1348,-1351,-1354,-1357,-1362,-1368,-1374,-1380,-1387,-1394,-1401,-1409,-1418,-1426,-1434,-1443,-1452,-1461,-1470,-1480,-1492,-1503,-1515,-1524,-1532,-1537,-1541,-1545,-1548,-1551,-1552,-1552,-1550,-1547,-1542,-1534,-1527,-1522,-1517,-1513,-1508,-1501,-1493,-1486,-1481,-1474,-1466,-1454,-1440,-1428,-1419,-1417,-1418,-1418,-1418,-1415,-1410,-1399,-1386,-1375,-1365,-1352,-1340,-1328,-1315,-1299,-1286,-1278,-1273,-1274,-1279,-1286,-1293,-1298,-1298,-1297,-1300,-1313,-1336,-1363,-1393,-1419,-1442,-1463,-1488,-1514,-1543,-1576,-1610,-1636,-1655,-1673,-1695,-1722,-1750,-1774,-1794,-1811,-1827,-1840,-1849,-1860,-1875,-1892,-1906,-1917,-1929,-1943,-1957,-1971,-1985,-1997,-2008,-2018,-2030,-2042,-2054,-2065,-2075,-2081,-2087,-2092,-2096,-2100,-2104,-2108,-2111,-2114,-2116,-2118,-2118,-2118,-2119,-2118,-2118,-2117,-2117,-2117,-2118,-2118,-2118,-2117,-2116,-2115,-2115,-2114,-2113,-2112,-2111,-2112,-2113,-2113,-2113,-2113,-2112,-2111,-2111,-2110,-2110,-2109,-2106,-2103,-2100,-2097,-2095,-2095,-2097,-2105,-2115,-2127,-2135,-2141,-2142,-2140,-2136,-2128,-2119,-2114,-2111,-2109,-2108,-2107,-2106,-2100,-2089,-2075,-2061,-2049,-2039,-2033,-2028,-2022,-2015,-2010,-2004,-1993,-1978,-1963,-1953,-1951,-1951,-1950,-1947,-1942,-1932,-1914,-1891,-1867,-1847,-1834,-1832,-1835,-1838,-1842,-1845,-1849,-1853,-1860,-1870,-1882,-1895,-1907,-1917,-1926,-1933,-1940,-1943,-1941,-1936,-1935,-1938,-1946,-1958,-1976,-1992,-2005,-2017,-2030,-2047,-2068,-2091,-2111,-2123,-2133,-2141,-2148,-2155,-2161,-2170,-2178,-2186,-2193,-2201,-2209,-2216,-2222,-2230,-2236,-2242,-2248,-2255,-2264,-2273,-2279,-2284,-2290,-2296,-2304,-2312,-2321,-2331,-2338,-2343,-2348,-2353,-2360,-2367,-2372,-2377,-2383,-2391,-2400,-2408,-2418,-2427,-2434,-2441,-2450,-2459,-2469,-2479,-2490,-2502,-2515,-2531,-2546,-2558,-2567,-2575,-2581,-2590,-2600,-2608,-2611,-2614,-2616,-2619,-2621,-2623,-2624,-2626,-2628,-2630,-2632,-2634,-2636,-2637,-2639,-2643,-2645,-2647,-2650,-2652,-2654,-2655,-2655,-2656,-2656,-2655,-2654,-2651,-2648,-2643,-2632,-2616,-2597,-2581,-2565,-2549,-2533,-2522,-2512,-2504,-2497,-2493,-2490,-2487,-2484,-2482,-2479,-2476,-2473,-2472,-2470,-2469,-2467,-2466,-2466,-2465,-2466,-2467,-2469,-2470,-2471,-2471,-2470,-2469,-2470,-2471,-2474,-2479,-2484,-2487,-2490,-2494,-2499,-2503,-2506,-2509,-2512,-2518,-2525,-2535,-2546,-2557,-2566,-2578,-2593,-2612,-2636,-2660,-2679,-2693,-2703,-2709,-2714,-2719,-2724,-2724,-2720,-2716,-2713,-2711,-2709,-2706,-2705,-2704,-2703,-2701,-2698,-2696,-2695,-2692,-2689,-2688,-2688,-2688,-2687,-2684,-2681,-2678,-2673,-2670,-2666,-2662,-2659,-2656,-2654,-2650,-2644,-2639,-2633,-2623,-2610,-2595,-2588,-2587,-2590,-2594,-2596,-2596,-2597,-2597
-828,-847,-864,-880,-896,-910,-924,-936,-948,-959,-968,-977,-987,-998,-1011,-1028,-1045,-1058,-1067,-1072,-1075,-1076,-1079,-1082,-1087,-1093,-1098,-1104,-1108,-1112,-1116,-1119,-1119,-1119,-1117,-1115,-1112,-1107,-1100,-1089,-1070,-1039,-1002,-970,-941,-915,-894,-877,-868,-875,-895,-916,-931,-941,-951,-968,-991,-1015,-1038,-1062,-1085,-1103,-1119,-1138,-1159,-1175,-1186,-1197,-1210,-1222,-1234,-1246,-1259,-1270,-1279,-1286,-1292,-1299,-1305,-1311,-1316,-1321,-1325,-1328,-1332,-1336,-1339,-1342,-1344,-1344,-1344,-1344,-1345,-1347,-1348,-1351,-1353,-1353,-1352,-1354,-1358,-1363,-1368,-1372,-1377,-1381,-1385,-1388,-1394,-1400,-1406,-1411,-1416,-1423,-1431,-1439,-1447,-1453,-1460,-1469,-1479,-1490,-1501,-1512,-1523,-1532,-1540,-1547,-1553,-1559,-1563,-1566,-1568,-1570,-1569,-1566,-1560,-1554,-1548,-1543,-1537,-1533,-1528,-1522,-1515,-1506,-1498,-1492,-1487,-1479,-1471,-1464,-1460,-1459,-1461,-1463,-1468,-1470,-1468,-1459,-1448,-1435,-1422,-1410,-1399,-1387,-1376,-1361,-1344,-1323,-1307,-1298,-1297,-1300,-1308,-1319,-1328,-1331,-1330,-1328,-1327,-1329,-1336,-1351,-1381,-1419,-1459,-1497,-1532,-1559,-1581,-1599,-1618,-1643,-1669,-1693,-1713,-1732,-1749,-1766,-1780,-1793,-1808,-1828,-1846,-1862,-1875,-1887,-1899,-1914,-1933,-1953,-1966,-1980,-1997,-2016,-2031,-2044,-2057,-2068,-2078,-2086,-2093,-2098,-2103,-2108,-2115,-2121,-2126,-2129,-2130,-2131,-2132,-2132,-2134,-2135,-2135,-2134,-2134,-2134,-2135,-2136,-2137,-2138,-2139,-2138,-2138,-2137,-2136,-2134,-2134,-2134,-2134,-2133,-2133,-2133,-2132,-2131,-2131,-2131,-2132,-2134,-2134,-2134,-2135,-2136,-2138,-2141,-2146,-2154,-2161,-2165,-2168,-2168,-2165,-2160,-2157,-2152,-2144,-2137,-2133,-2132,-2133,-2134,-2132,-2122,-2105,-2088,-2078,-2074,-2071,-2071,-2075,-2079,-2082,-2080,-2073,-2067,-2061,-2057,-2052,-2046,-2032,-2015,-1996,-1972,-1943,-1917,-1899,-1883,-1870,-1861,-1856,-1853,-1854,-1856,-1859,-1861,-1863,-1865,-1867,-1869,-1871,-1874,-1877,-1880,-1884,-1887,-1891,-1894,-1896,-1897,-1900,-1904,-1910,-1918,-1929,-1944,-1965,-1991,-2021,-2052,-2077,-2097,-2112,-2124,-2134,-2142,-2151,-2160,-2170,-2180,-2190,-2199,-2207,-2217,-2228,-2238,-2245,-2251,-2257,-2262,-2268,-2275,-2282,-2289,-2296,-2302,-2307,-2311,-2318,-2325,-2332,-2337,-2341,-2347,-2355,-2362,-2369,-2374,-2380,-2386,-2392,-2399,-2406,-2414,-2423,-2430,-2438,-2445,-2452,-2460,-2471,-2487,-2503,-2518,-2529,-2539,-2548,-2558,-2566,-2572,-2581,-2594,-2605,-2612,-2618,-2623,-2625,-2627,-2628,-2629,-2631,-2632,-2633,-2636,-2640,-2645,-2647,-2648,-2649,-2651,-2653,-2655,-2657,-2659,-2663,-2666,-2669,-2669,-2669,-2668,-2667,-2666,-2664,-2660,-2654,-2643,-2629,-2612,-2596,-2579,-2564,-2550,-2540,-2531,-2524,-2518,-2513,-2506,-2501,-2496,-2493,-2490,-2488,-2486,-2486,-2485,-2485,-2485,-2486,-2486,-2486,-2486,-2487,-2488,-2487,-2485,-2483,-2481,-2481,-2484,-2488,-2493,-2497,-2501,-2504,-2508,-2513,-2517,-2522,-2527,-2533,-2538,-2546,-2555,-2564,-2575,-2588,-2604,-2620,-2637,-2657,-2679,-2698,-2710,-2719,-2728,-2736,-2740,-2739,-2735,-2732,-2731,-2731,-2730,-2729,-2729,-2727,-2725,-2722,-2720,-2717,-2716,-2715,-2713,-2711,-2709,-2705,-2700,-2694,-2690,-2688,-2686,-2684,-2681,-2677,-2672,-2670,-2668,-2664,-2661,-2660,-2661,-2662,-2660,-2655,-2654,-2663,-2681,-2678,-2652,-2630,-2625
-821,-836,-851,-868,-884,-898,-915,-932,-945,-955,-964,-971,-979,-987,-999,-1017,-1035,-1052,-1070,-1084,-1094,-1100,-1103,-1106,-1109,-1113,-1115,-1118,-1122,-1128,-1134,-1138,-1140,-1142,-1143,-1144,-1143,-1140,-1136,-1129,-1108,-1079,-1051,-1019,-984,-958,-938,-924,-914,-909,-905,-908,-923,-946,-968,-987,-1003,-1020,-1036,-1053,-1068,-1084,-1101,-1121,-1142,-1161,-1178,-1191,-1204,-1216,-1229,-1241,-1254,-1267,-1279,-1287,-1294,-1302,-1311,-1319,-1323,-1327,-1330,-1334,-1340,-1346,-1351,-1356,-1361,-1365,-1368,-1370,-1371,-1372,-1372,-1374,-1377,-1379,-1377,-1375,-1374,-1377,-1381,-1386,-1393,-1398,-1402,-1405,-1409,-1414,-1420,-1426,-1430,-1435,-1441,-1448,-1454,-1461,-1467,-1474,-1481,-1489,-1498,-1507,-1517,-1528,-1538,-1548,-1555,-1563,-1570,-1577,-1582,-1586,-1588,-1589,-1585,-1579,-1572,-1567,-1563,-1558,-1552,-1546,-1539,-1531,-1526,-1525,-1524,-1522,-1519,-1517,-1513,-1509,-1506,-1506,-1507,-1509,-1509,-1507,-1500,-1491,-1482,-1473,-1465,-1459,-1450,-1438,-1423,-1409,-1394,-1384,-1381,-1385,-1389,-1393,-1398,-1401,-1399,-1389,-1375,-1362,-1348,-1336,-1330,-1336,-1356,-1389,-1423,-1456,-1494,-1531,-1562,-1590,-1619,-1644,-1665,-1681,-1693,-1700,-1704,-1710,-1724,-1742,-1762,-1775,-1783,-1798,-1826,-1850,-1868,-1885,-1903,-1928,-1959,-1988,-2013,-2034,-2050,-2063,-2075,-2087,-2097,-2103,-2110,-2117,-2122,-2127,-2131,-2134,-2136,-2138,-2141,-2145,-2148,-2149,-2149,-2148,-2147,-2147,-2148,-2149,-2150,-2151,-2153,-2154,-2154,-2155,-2155,-2154,-2153,-2153,-2153,-2154,-2154,-2154,-2154,-2153,-2153,-2154,-2155,-2157,-2158,-2160,-2161,-2164,-2169,-2177,-2185,-2190,-2192,-2193,-2193,-2193,-2192,-2188,-2183,-2178,-2171,-2166,-2162,-2160,-2157,-2154,-2149,-2139,-2125,-2113,-2108,-2109,-2112,-2116,-2120,-2123,-2126,-2128,-2132,-2135,-2138,-2140,-2138,-2131,-2120,-2105,-2084,-2052,-2017,-1987,-1969,-1958,-1951,-1943,-1933,-1918,-1904,-1891,-1883,-1880,-1883,-1887,-1890,-1891,-1890,-1888,-1887,-1887,-1889,-1892,-1895,-1899,-1902,-1905,-1906,-1908,-1911,-1914,-1918,-1922,-1929,-1941,-1963,-1993,-2024,-2057,-2088,-2111,-2127,-2141,-2153,-2163,-2172,-2181,-2190,-2199,-2209,-2221,-2231,-2237,-2242,-2249,-2257,-2264,-2271,-2280,-2289,-2298,-2304,-2306,-2307,-2308,-2311,-2318,-2323,-2329,-2336,-2345,-2351,-2357,-2364,-2372,-2379,-2385,-2393,-2401,-2406,-2411,-2418,-2427,-2436,-2444,-2450,-2456,-2464,-2474,-2484,-2494,-2504,-2513,-2524,-2534,-2542,-2551,-2563,-2574,-2585,-2596,-2608,-2618,-2626,-2631,-2635,-2637,-2638,-2639,-2639,-2640,-2642,-2646,-2651,-2655,-2657,-2659,-2661,-2662,-2662,-2663,-2665,-2670,-2675,-2679,-2680,-2680,-2680,-2680,-2681,-2680,-2679,-2677,-2673,-2667,-2655,-2639,-2622,-2606,-2590,-2576,-2564,-2553,-2543,-2534,-2527,-2522,-2519,-2516,-2513,-2511,-2509,-2508,-2506,-2506,-2505,-2504,-2504,-2505,-2505,-2505,-2505,-2503,-2501,-2499,-2498,-2498,-2499,-2501,-2503,-2506,-2512,-2519,-2527,-2532,-2537,-2540,-2543,-2546,-2550,-2555,-2560,-2568,-2579,-2593,-2606,-2619,-2633,-2649,-2664,-2679,-2698,-2720,-2736,-2746,-2751,-2753,-2750,-2748,-2747,-2749,-2750,-2750,-2749,-2747,-2745,-2742,-2738,-2735,-2731,-2729,-2729,-2728,-2726,-2724,-2723,-2718,-2710,-2703,-2700,-2699,-2698,-2698,-2697,-2698,-2696,-2691,-2685,-2684,-2688,-2691,-2688,-2684,-2687,-2699,-2703,-2689,-2679,-2684
