-77,-78,-79,-80,-81,-82,-83,-84,-84,-84,-84,-84,-84,-85,-85,-86,-86,-86,-86,-87,-87,-87,-87,-88,-87,-86,-85,-84,-81,-80,-80,-80,-81,-82,-83,-84,-86,-87,-88,-89,-90,-90,-90,-91,-91,-91,-90,-88,-86,-85,-85,-86,-86,-87,-88,-89,-90,-92,-94,-96,-99,-103,-107,-110,-112,-114,-116,-118,-120,-121,-122,-123,-123,-124,-125,-125,-126,-126,-127,-128,-129,-130,-131,-132,-133,-133,-134,-135,-137,-139,-141,-142,-144,-145,-146,-146,-146,-145,-146,-147,-148,-148,-147,-146,-146,-145,-146,-149,-151,-153,-155,-157,-159,-159,-160,-160,-161,-163,-165,-168,-169,-169,-168,-168,-168,-169,-169,-169,-170,-170,-170,-171,-173,-175,-177,-178,-179,-182,-185,-186,-186,-185,-185,-186,-187,-188,-188,-189,-190,-190,-191,-191,-191,-192,-194,-195,-196,-198,-199,-201,-202,-203,-205,-206,-207,-208,-210,-210,-211,-212,-212,-212,-212,-211,-211,-212,-212,-213,-214,-215,-215,-216,-217,-218,-219,-219,-220,-220,-221,-221,-221,-221,-220,-220,-220,-220,-222,-223,-225,-228,-229,-230,-231,-231,-231,-231,-231,-231,-233,-234,-235,-236,-236,-237,-238,-239,-241,-243,-244,-244,-243,-242,-242,-241,-242,-243,-244,-245,-247,-247,-245,-243,-243,-243,-245,-249,-254,-258,-263,-267,-268,-266,-263,-261,-260,-261,-262,-264,-266,-270,-274,-278,-281,-283,-282,-281,-280,-279,-279,-279,-280,-281,-283,-285,-287,-287,-288,-288,-289,-290,-292,-294,-296,-298,-299,-302,-305,-307,-310,-312,-314,-314,-315,-317,-318,-321,-324,-328,-330,-332,-335,-339,-343,-346,-351,-357,-364,-368,-370,-373,-380,-389,-398,-407,-414,-419,-423,-429,-434,-438,-440,-443,-448,-457,-470,-484,-502,-521,-538,-550,-558,-567,-581,-599,-618,-634,-649,-661,-672,-683,-695,-706,-715,-725,-735,-745,-752,-760,-769,-777,-785,-794,-805,-814,-821,-826,-831,-836,-841,-849,-861,-880,-900,-928,-958,-984,-1006,-1027,-1047,-1067,-1088,-1108,-1126,-1143,-1159,-1173,-1185,-1194,-1201,-1209,-1217,-1224,-1230,-1237,-1246,-1256,-1263,-1270,-1276,-1281,-1285,-1285,-1278,-1263,-1247,-1234,-1228,-1222,-1212,-1201,-1194,-1197,-1207,-1218,-1225,-1234,-1246,-1261,-1279,-1294,-1298,-1287,-1270,-1253,-1241,-1240,-1250,-1259,-1261,-1256,-1245,-1229,-1209,-1187,-1166,-1149,-1137,-1132,-1131,-1129,-1126,-1119,-1106,-1087,-1067,-1050,-1039,-1034,-1035,-1039,-1046,-1056,-1072,-1093,-1112,-1122,-1128,-1131,-1133,-1135,-1134,-1129,-1116,-1100,-1080,-1063,-1055,-1062,-1076,-1094,-1112,-1123,-1125,-1119,-1111,-1100,-1083,-1061,-1043,-1032,-1029,-1028,-1029,-1035,-1046,-1058,-1068,-1075,-1079,-1081,-1087,-1098,-1112,-1132,-1153,-1175,-1200,-1229,-1258,-1283,-1302,-1318,-1330,-1344,-1360,-1381,-1401,-1424,-1447,-1471,-1497,-1521,-1541,-1555,-1570,-1585,-1602,-1621,-1642,-1664,-1683,-1702,-1717,-1727,-1734,-1739,-1743,-1747,-1750,-1754,-1756,-1758,-1760,-1763,-1765,-1766,-1767,-1767,-1767,-1767,-1768,-1769,-1768,-1768,-1769,-1768,-1767,-1766,-1765,-1763,-1760,-1757,-1752,-1742,-1732,-1724,-1716,-1709,-1702,-1688,-1668,-1653,-1653,-1668,-1688,-1702,-1707,-1698,-1686,-1671,-1649,-1625,-1615,-1620
-83,-84,-84,-85,-86,-86,-87,-87,-88,-88,-89,-89,-89,-90,-90,-90,-91,-91,-92,-92,-93,-93,-93,-93,-93,-93,-93,-92,-91,-89,-88,-87,-87,-87,-87,-88,-88,-89,-90,-91,-92,-92,-93,-93,-93,-93,-93,-92,-92,-91,-91,-91,-92,-94,-96,-98,-100,-100,-101,-102,-104,-108,-113,-117,-119,-122,-125,-127,-128,-129,-129,-128,-127,-127,-126,-126,-126,-127,-128,-129,-130,-131,-133,-135,-137,-139,-141,-143,-144,-144,-145,-145,-146,-147,-147,-147,-147,-148,-148,-149,-150,-150,-148,-147,-147,-148,-150,-152,-153,-155,-157,-160,-162,-163,-162,-162,-162,-162,-165,-169,-169,-169,-169,-170,-170,-171,-172,-173,-174,-174,-174,-176,-178,-180,-183,-184,-185,-185,-185,-186,-187,-189,-190,-191,-192,-193,-194,-195,-196,-197,-197,-196,-195,-195,-195,-197,-198,-199,-201,-202,-203,-205,-206,-207,-208,-209,-210,-211,-212,-212,-212,-212,-213,-213,-213,-213,-214,-215,-216,-217,-218,-219,-220,-221,-223,-223,-223,-222,-221,-220,-219,-219,-220,-221,-222,-223,-225,-227,-229,-229,-230,-230,-231,-231,-232,-232,-233,-234,-235,-236,-236,-237,-238,-240,-243,-245,-245,-244,-242,-242,-241,-242,-243,-244,-245,-245,-245,-244,-245,-245,-246,-246,-247,-248,-250,-253,-255,-257,-259,-263,-265,-265,-264,-263,-263,-264,-265,-266,-269,-273,-277,-281,-283,-283,-282,-282,-282,-281,-281,-281,-281,-282,-283,-285,-287,-289,-291,-292,-293,-294,-295,-297,-299,-301,-303,-305,-307,-309,-309,-310,-310,-312,-314,-317,-320,-322,-325,-329,-333,-335,-337,-340,-344,-348,-353,-358,-363,-367,-370,-373,-376,-385,-395,-404,-411,-417,-423,-428,-434,-439,-443,-445,-449,-457,-468,-482,-500,-519,-535,-549,-566,-582,-600,-621,-640,-656,-669,-683,-691,-697,-705,-714,-726,-744,-762,-774,-784,-794,-804,-814,-823,-832,-842,-852,-862,-871,-878,-885,-891,-897,-905,-914,-922,-930,-942,-957,-975,-991,-1006,-1024,-1048,-1075,-1098,-1119,-1138,-1152,-1167,-1182,-1196,-1207,-1218,-1230,-1241,-1251,-1261,-1270,-1280,-1290,-1300,-1309,-1318,-1323,-1322,-1315,-1307,-1305,-1302,-1296,-1288,-1288,-1290,-1292,-1291,-1288,-1285,-1291,-1312,-1340,-1365,-1377,-1364,-1327,-1288,-1268,-1261,-1266,-1283,-1306,-1326,-1336,-1326,-1305,-1283,-1261,-1237,-1216,-1203,-1196,-1189,-1180,-1167,-1149,-1129,-1113,-1105,-1105,-1107,-1104,-1096,-1087,-1084,-1084,-1090,-1100,-1115,-1131,-1143,-1152,-1157,-1163,-1168,-1171,-1170,-1163,-1151,-1134,-1120,-1118,-1131,-1147,-1165,-1182,-1195,-1197,-1191,-1181,-1165,-1145,-1126,-1113,-1106,-1099,-1085,-1070,-1056,-1044,-1036,-1031,-1030,-1034,-1040,-1049,-1066,-1094,-1125,-1153,-1178,-1199,-1213,-1225,-1235,-1244,-1251,-1260,-1272,-1289,-1314,-1342,-1366,-1384,-1405,-1428,-1450,-1468,-1485,-1503,-1523,-1546,-1570,-1591,-1614,-1640,-1664,-1684,-1704,-1723,-1738,-1747,-1753,-1759,-1763,-1767,-1769,-1771,-1775,-1778,-1782,-1785,-1785,-1786,-1787,-1791,-1795,-1797,-1797,-1795,-1794,-1792,-1791,-1791,-1789,-1786,-1783,-1779,-1777,-1775,-1773,-1771,-1767,-1759,-1747,-1740,-1743,-1754,-1765,-1771,-1772,-1764,-1749,-1728,-1705,-1684,-1664,-1648
-89,-90,-91,-91,-92,-92,-93,-93,-94,-94,-94,-94,-94,-94,-94,-94,-93,-93,-93,-93,-93,-93,-93,-93,-92,-92,-91,-91,-90,-90,-90,-89,-89,-90,-90,-91,-91,-92,-92,-93,-94,-95,-95,-96,-97,-97,-98,-98,-98,-99,-99,-100,-101,-102,-104,-105,-106,-107,-108,-110,-112,-115,-119,-121,-124,-126,-129,-130,-131,-130,-129,-129,-128,-127,-127,-127,-128,-130,-131,-133,-135,-137,-139,-141,-143,-145,-146,-145,-145,-146,-146,-147,-147,-147,-148,-149,-150,-151,-150,-149,-149,-149,-150,-152,-153,-154,-154,-155,-156,-157,-158,-160,-162,-163,-163,-162,-162,-164,-167,-170,-172,-172,-172,-173,-174,-176,-178,-179,-180,-180,-180,-181,-182,-183,-185,-186,-187,-187,-186,-185,-185,-187,-190,-194,-195,-196,-197,-198,-199,-199,-198,-198,-198,-199,-199,-200,-201,-202,-203,-204,-205,-206,-207,-208,-209,-210,-211,-211,-212,-212,-213,-213,-214,-214,-215,-216,-217,-217,-218,-218,-219,-221,-222,-223,-223,-223,-223,-222,-221,-220,-221,-222,-223,-224,-226,-228,-229,-229,-230,-230,-230,-231,-232,-233,-234,-235,-236,-236,-237,-238,-239,-241,-242,-242,-242,-242,-241,-241,-242,-243,-244,-245,-245,-245,-245,-245,-244,-245,-246,-248,-250,-252,-254,-255,-256,-256,-257,-258,-261,-265,-268,-269,-268,-266,-266,-266,-268,-270,-273,-276,-279,-279,-280,-279,-279,-279,-281,-282,-283,-284,-283,-283,-284,-286,-288,-290,-294,-297,-298,-299,-299,-299,-299,-300,-301,-302,-304,-307,-309,-310,-311,-312,-315,-318,-321,-323,-326,-330,-333,-336,-337,-339,-343,-347,-351,-356,-361,-367,-371,-374,-376,-380,-387,-397,-406,-414,-421,-425,-431,-437,-442,-446,-449,-452,-459,-472,-489,-506,-523,-537,-551,-569,-589,-611,-633,-652,-667,-682,-695,-705,-716,-730,-746,-763,-780,-794,-804,-814,-825,-835,-845,-855,-865,-876,-886,-896,-907,-918,-928,-938,-948,-958,-968,-977,-987,-997,-1006,-1014,-1020,-1025,-1032,-1043,-1056,-1073,-1093,-1113,-1129,-1141,-1151,-1162,-1176,-1196,-1221,-1246,-1266,-1279,-1290,-1299,-1308,-1318,-1327,-1340,-1359,-1375,-1379,-1378,-1377,-1384,-1394,-1401,-1405,-1403,-1396,-1383,-1371,-1372,-1391,-1421,-1449,-1461,-1447,-1405,-1353,-1317,-1303,-1300,-1309,-1329,-1358,-1383,-1385,-1366,-1342,-1323,-1305,-1289,-1276,-1261,-1239,-1215,-1191,-1170,-1156,-1148,-1148,-1156,-1167,-1171,-1168,-1163,-1161,-1156,-1147,-1137,-1134,-1143,-1158,-1171,-1179,-1186,-1197,-1208,-1219,-1222,-1218,-1207,-1196,-1193,-1202,-1219,-1232,-1242,-1248,-1251,-1248,-1239,-1224,-1205,-1183,-1161,-1146,-1135,-1123,-1111,-1099,-1085,-1068,-1047,-1030,-1029,-1040,-1056,-1071,-1088,-1105,-1118,-1128,-1136,-1142,-1148,-1151,-1157,-1167,-1181,-1196,-1211,-1230,-1250,-1267,-1287,-1312,-1339,-1363,-1388,-1410,-1430,-1449,-1468,-1490,-1512,-1536,-1561,-1585,-1608,-1634,-1661,-1688,-1715,-1739,-1754,-1763,-1769,-1775,-1779,-1781,-1783,-1785,-1787,-1790,-1792,-1793,-1797,-1802,-1806,-1806,-1805,-1806,-1808,-1809,-1810,-1810,-1811,-1812,-1814,-1814,-1814,-1814,-1815,-1814,-1812,-1809,-1807,-1811,-1816,-1819,-1819,-1815,-1809,-1802,-1790,-1775,-1759,-1742,-1724
-91,-92,-93,-94,-95,-95,-96,-96,-96,-96,-96,-96,-96,-95,-95,-95,-94,-94,-94,-94,-93,-93,-93,-93,-93,-92,-92,-92,-92,-92,-92,-92,-93,-93,-94,-94,-95,-95,-96,-97,-98,-99,-100,-101,-102,-103,-104,-105,-106,-106,-107,-109,-110,-111,-113,-114,-116,-118,-119,-121,-123,-125,-126,-129,-130,-131,-132,-132,-132,-132,-132,-132,-132,-133,-133,-134,-135,-136,-137,-139,-141,-142,-144,-145,-146,-147,-147,-147,-147,-147,-148,-149,-150,-151,-151,-152,-153,-153,-152,-151,-152,-153,-153,-153,-154,-155,-156,-157,-157,-158,-159,-160,-160,-161,-162,-163,-165,-168,-171,-174,-176,-177,-177,-177,-177,-178,-180,-181,-182,-183,-183,-184,-185,-186,-187,-188,-188,-189,-190,-190,-191,-192,-194,-196,-197,-197,-198,-201,-203,-202,-200,-198,-197,-198,-199,-201,-202,-204,-205,-206,-207,-208,-209,-210,-210,-211,-212,-212,-213,-213,-214,-214,-214,-214,-215,-216,-217,-219,-220,-221,-222,-225,-226,-225,-222,-221,-220,-221,-221,-222,-224,-226,-228,-228,-227,-227,-228,-230,-230,-231,-232,-234,-235,-235,-236,-237,-238,-240,-242,-243,-243,-242,-242,-242,-242,-242,-244,-245,-247,-247,-247,-246,-245,-245,-245,-245,-247,-249,-251,-253,-254,-255,-256,-257,-258,-258,-259,-262,-267,-270,-270,-268,-266,-266,-268,-270,-272,-275,-279,-282,-281,-278,-276,-276,-277,-278,-280,-283,-285,-287,-287,-288,-288,-289,-291,-292,-293,-294,-296,-297,-298,-298,-299,-301,-302,-304,-306,-308,-311,-313,-315,-316,-317,-319,-321,-323,-326,-329,-333,-336,-340,-342,-344,-348,-351,-355,-359,-364,-369,-374,-378,-381,-384,-391,-402,-410,-417,-423,-427,-432,-436,-441,-445,-448,-451,-457,-468,-484,-501,-511,-520,-538,-563,-583,-602,-623,-641,-656,-670,-682,-694,-709,-724,-742,-763,-784,-800,-814,-829,-843,-856,-869,-880,-891,-900,-909,-919,-929,-941,-954,-966,-976,-983,-991,-1000,-1011,-1023,-1034,-1044,-1055,-1065,-1073,-1082,-1092,-1104,-1116,-1127,-1135,-1145,-1155,-1165,-1175,-1194,-1222,-1251,-1273,-1286,-1293,-1300,-1312,-1326,-1333,-1346,-1372,-1398,-1409,-1409,-1415,-1432,-1447,-1454,-1458,-1461,-1461,-1459,-1460,-1470,-1487,-1502,-1503,-1484,-1451,-1419,-1399,-1395,-1397,-1398,-1401,-1414,-1437,-1450,-1445,-1427,-1404,-1378,-1352,-1326,-1298,-1268,-1241,-1224,-1220,-1230,-1243,-1253,-1255,-1254,-1256,-1258,-1260,-1253,-1240,-1220,-1199,-1180,-1168,-1168,-1174,-1187,-1204,-1223,-1246,-1269,-1288,-1301,-1305,-1298,-1291,-1290,-1295,-1296,-1293,-1288,-1283,-1278,-1269,-1258,-1242,-1222,-1203,-1191,-1184,-1176,-1164,-1148,-1126,-1101,-1077,-1059,-1056,-1068,-1084,-1099,-1115,-1134,-1152,-1168,-1180,-1184,-1181,-1172,-1168,-1170,-1177,-1181,-1184,-1189,-1199,-1212,-1230,-1250,-1271,-1293,-1314,-1334,-1353,-1374,-1396,-1419,-1444,-1470,-1497,-1524,-1553,-1582,-1611,-1643,-1676,-1704,-1727,-1744,-1753,-1758,-1763,-1768,-1775,-1780,-1783,-1786,-1788,-1791,-1795,-1799,-1803,-1806,-1808,-1810,-1812,-1815,-1819,-1822,-1826,-1829,-1833,-1835,-1838,-1840,-1843,-1845,-1848,-1850,-1851,-1852,-1852,-1853,-1852,-1851,-1849,-1846,-1838,-1827,-1817,-1805,-1788
-93,-94,-95,-96,-97,-98,-98,-99,-99,-99,-99,-99,-99,-98,-98,-97,-97,-97,-97,-97,-97,-96,-96,-96,-96,-96,-96,-96,-96,-96,-96,-96,-97,-97,-98,-99,-99,-100,-101,-102,-103,-105,-106,-107,-108,-109,-110,-112,-113,-114,-115,-117,-118,-120,-122,-124,-126,-128,-130,-132,-133,-133,-133,-133,-133,-134,-136,-136,-135,-135,-135,-136,-137,-139,-140,-141,-141,-142,-142,-144,-146,-147,-147,-147,-147,-147,-148,-149,-150,-151,-152,-153,-153,-153,-154,-155,-155,-155,-154,-154,-155,-156,-157,-157,-157,-158,-158,-159,-159,-159,-159,-160,-160,-162,-164,-167,-169,-171,-174,-178,-180,-180,-180,-179,-179,-180,-181,-182,-183,-184,-185,-186,-187,-188,-189,-190,-191,-192,-194,-195,-195,-196,-197,-197,-198,-199,-202,-205,-205,-203,-202,-201,-202,-203,-203,-204,-205,-207,-207,-208,-209,-210,-210,-211,-212,-213,-214,-214,-215,-216,-217,-217,-218,-219,-221,-222,-222,-222,-223,-223,-223,-223,-222,-222,-222,-222,-223,-224,-226,-228,-229,-228,-228,-228,-228,-229,-230,-232,-234,-234,-235,-236,-237,-239,-241,-243,-244,-245,-244,-243,-242,-242,-242,-243,-245,-245,-246,-246,-246,-246,-246,-246,-247,-248,-248,-250,-252,-254,-255,-255,-256,-256,-257,-257,-258,-261,-264,-269,-273,-274,-273,-271,-269,-269,-269,-271,-274,-278,-282,-284,-283,-279,-278,-278,-279,-280,-282,-284,-286,-288,-290,-291,-292,-292,-291,-291,-292,-293,-295,-297,-300,-301,-301,-302,-304,-306,-308,-310,-312,-314,-315,-316,-320,-323,-325,-327,-330,-333,-336,-340,-343,-346,-348,-349,-350,-352,-355,-360,-366,-372,-377,-380,-383,-386,-393,-402,-410,-417,-422,-426,-430,-435,-440,-444,-448,-453,-461,-473,-489,-504,-520,-535,-549,-566,-583,-599,-615,-633,-653,-674,-692,-707,-722,-737,-753,-770,-782,-794,-807,-819,-831,-842,-852,-860,-867,-875,-884,-897,-912,-928,-944,-958,-968,-976,-983,-991,-999,-1008,-1019,-1033,-1048,-1063,-1078,-1093,-1110,-1124,-1135,-1145,-1154,-1165,-1175,-1186,-1199,-1214,-1229,-1243,-1253,-1256,-1256,-1254,-1254,-1256,-1261,-1275,-1293,-1316,-1340,-1367,-1397,-1423,-1440,-1448,-1456,-1466,-1477,-1491,-1505,-1520,-1532,-1540,-1543,-1547,-1550,-1545,-1536,-1532,-1529,-1526,-1522,-1523,-1525,-1516,-1487,-1454,-1423,-1395,-1367,-1339,-1313,-1293,-1286,-1294,-1312,-1337,-1359,-1372,-1372,-1368,-1363,-1353,-1335,-1310,-1283,-1255,-1237,-1230,-1226,-1216,-1205,-1207,-1226,-1254,-1283,-1310,-1334,-1353,-1366,-1373,-1373,-1370,-1363,-1351,-1338,-1326,-1315,-1304,-1295,-1287,-1277,-1268,-1259,-1250,-1235,-1216,-1190,-1159,-1127,-1103,-1091,-1095,-1109,-1124,-1138,-1153,-1170,-1191,-1212,-1230,-1241,-1244,-1239,-1230,-1227,-1233,-1245,-1252,-1256,-1261,-1266,-1270,-1269,-1264,-1260,-1266,-1282,-1306,-1334,-1362,-1387,-1415,-1446,-1477,-1507,-1537,-1564,-1591,-1622,-1653,-1677,-1696,-1709,-1718,-1725,-1733,-1741,-1749,-1759,-1770,-1778,-1783,-1787,-1789,-1793,-1797,-1802,-1806,-1809,-1812,-1817,-1822,-1827,-1832,-1837,-1841,-1846,-1850,-1853,-1857,-1860,-1864,-1868,-1871,-1874,-1876,-1877,-1878,-1879,-1878,-1878,-1876,-1872,-1865,-1859,-1850
-96,-97,-98,-99,-100,-101,-102,-102,-103,-103,-103,-103,-103,-102,-102,-102,-101,-101,-101,-101,-101,-101,-101,-101,-101,-101,-101,-101,-101,-101,-101,-102,-102,-103,-104,-105,-106,-107,-108,-109,-110,-111,-113,-114,-115,-116,-118,-119,-120,-121,-123,-124,-126,-128,-130,-132,-134,-136,-138,-139,-139,-139,-139,-138,-138,-138,-138,-139,-140,-141,-141,-142,-143,-143,-143,-143,-144,-145,-146,-146,-147,-148,-148,-147,-147,-148,-150,-150,-151,-154,-155,-155,-155,-156,-157,-158,-160,-160,-161,-161,-161,-161,-161,-161,-162,-162,-162,-163,-164,-164,-165,-166,-166,-167,-169,-171,-173,-176,-181,-185,-186,-185,-184,-184,-184,-184,-185,-185,-186,-186,-187,-188,-190,-191,-192,-193,-194,-196,-197,-198,-198,-199,-200,-201,-203,-205,-205,-204,-202,-202,-204,-206,-209,-210,-211,-211,-210,-211,-211,-211,-212,-212,-213,-214,-215,-216,-217,-218,-219,-220,-221,-221,-222,-222,-224,-226,-227,-226,-224,-222,-222,-222,-222,-223,-224,-224,-225,-226,-228,-229,-229,-230,-230,-231,-232,-234,-235,-237,-237,-236,-237,-240,-242,-245,-246,-246,-245,-243,-243,-242,-243,-244,-246,-246,-246,-245,-245,-244,-245,-246,-247,-248,-250,-251,-252,-253,-254,-256,-257,-258,-259,-259,-260,-261,-262,-265,-270,-274,-277,-277,-275,-273,-271,-271,-272,-274,-276,-279,-283,-285,-284,-282,-282,-282,-283,-284,-285,-286,-286,-287,-288,-289,-290,-290,-291,-292,-295,-298,-300,-303,-304,-304,-304,-305,-306,-309,-311,-314,-316,-319,-320,-322,-324,-327,-330,-332,-335,-338,-340,-342,-344,-346,-347,-349,-352,-355,-358,-361,-365,-369,-373,-377,-380,-384,-390,-397,-405,-412,-418,-423,-428,-432,-438,-444,-453,-465,-477,-483,-484,-487,-495,-504,-521,-546,-566,-580,-597,-620,-646,-670,-683,-690,-692,-700,-712,-727,-741,-754,-766,-777,-788,-798,-807,-816,-825,-835,-851,-872,-891,-905,-917,-927,-936,-944,-954,-965,-972,-980,-989,-1000,-1014,-1029,-1043,-1059,-1080,-1100,-1115,-1128,-1141,-1154,-1167,-1180,-1194,-1206,-1219,-1231,-1241,-1248,-1254,-1258,-1259,-1258,-1256,-1258,-1264,-1273,-1282,-1294,-1307,-1319,-1329,-1338,-1349,-1371,-1396,-1424,-1452,-1480,-1508,-1530,-1548,-1560,-1573,-1587,-1598,-1602,-1602,-1604,-1604,-1603,-1599,-1588,-1561,-1526,-1494,-1465,-1435,-1405,-1382,-1376,-1383,-1397,-1409,-1422,-1437,-1452,-1462,-1461,-1451,-1431,-1407,-1385,-1367,-1354,-1343,-1336,-1325,-1310,-1291,-1275,-1268,-1278,-1299,-1321,-1342,-1361,-1384,-1409,-1430,-1439,-1437,-1428,-1414,-1397,-1379,-1365,-1355,-1345,-1335,-1323,-1306,-1284,-1259,-1228,-1190,-1153,-1122,-1104,-1103,-1119,-1139,-1159,-1178,-1197,-1217,-1237,-1256,-1273,-1288,-1298,-1302,-1300,-1298,-1302,-1309,-1316,-1321,-1323,-1322,-1319,-1316,-1311,-1301,-1289,-1288,-1304,-1333,-1366,-1397,-1426,-1457,-1487,-1517,-1543,-1566,-1589,-1614,-1641,-1664,-1682,-1692,-1698,-1702,-1710,-1719,-1726,-1734,-1743,-1751,-1759,-1768,-1774,-1779,-1784,-1789,-1795,-1802,-1808,-1814,-1820,-1827,-1833,-1839,-1844,-1849,-1853,-1858,-1862,-1867,-1870,-1873,-1878,-1884,-1889,-1893,-1896,-1899,-1901,-1902,-1902,-1900,-1898,-1896,-1894
-98,-100,-101,-102,-103,-104,-105,-105,-106,-106,-107,-107,-107,-107,-107,-106,-106,-106,-106,-106,-106,-106,-106,-106,-106,-106,-107,-107,-107,-108,-108,-108,-109,-110,-111,-112,-113,-114,-115,-116,-117,-119,-120,-121,-122,-124,-125,-126,-128,-129,-130,-131,-132,-134,-135,-137,-138,-140,-141,-142,-142,-142,-142,-142,-142,-143,-143,-143,-144,-144,-145,-145,-146,-146,-146,-145,-145,-145,-147,-148,-150,-151,-151,-152,-152,-152,-153,-154,-156,-158,-159,-159,-159,-160,-161,-161,-161,-162,-163,-164,-165,-165,-165,-166,-166,-166,-166,-167,-167,-168,-168,-169,-170,-171,-172,-174,-178,-184,-189,-190,-190,-189,-188,-187,-187,-188,-188,-188,-188,-189,-190,-191,-193,-194,-195,-196,-197,-199,-199,-200,-201,-201,-202,-202,-205,-208,-209,-207,-205,-203,-203,-206,-209,-211,-213,-214,-214,-214,-214,-214,-215,-215,-216,-217,-218,-219,-221,-223,-225,-225,-224,-223,-224,-225,-226,-226,-225,-224,-223,-223,-223,-224,-226,-228,-229,-229,-229,-230,-230,-230,-231,-233,-234,-235,-236,-236,-237,-239,-242,-245,-247,-248,-247,-246,-245,-244,-244,-245,-246,-247,-248,-247,-247,-246,-246,-245,-246,-247,-248,-250,-252,-252,-253,-253,-254,-254,-255,-255,-256,-258,-260,-261,-262,-263,-264,-266,-271,-275,-277,-276,-274,-272,-271,-272,-273,-275,-278,-282,-286,-288,-285,-283,-283,-284,-285,-285,-286,-287,-289,-290,-290,-291,-292,-293,-293,-294,-296,-298,-300,-301,-302,-304,-306,-308,-312,-315,-317,-319,-320,-321,-323,-324,-325,-327,-329,-331,-334,-336,-339,-341,-344,-347,-348,-350,-352,-356,-359,-361,-365,-369,-374,-377,-382,-386,-390,-396,-402,-409,-415,-420,-425,-430,-435,-441,-446,-452,-458,-459,-458,-459,-466,-471,-479,-499,-524,-546,-562,-576,-587,-598,-603,-608,-615,-632,-657,-686,-716,-742,-761,-777,-790,-800,-808,-815,-824,-836,-858,-885,-909,-924,-934,-941,-947,-951,-953,-956,-961,-969,-979,-991,-1006,-1022,-1037,-1053,-1069,-1084,-1098,-1112,-1125,-1138,-1154,-1170,-1186,-1202,-1218,-1233,-1247,-1263,-1277,-1293,-1307,-1322,-1331,-1330,-1324,-1315,-1304,-1291,-1278,-1265,-1262,-1267,-1273,-1284,-1304,-1326,-1348,-1375,-1409,-1444,-1472,-1497,-1522,-1547,-1572,-1594,-1608,-1616,-1621,-1624,-1625,-1622,-1613,-1597,-1573,-1543,-1512,-1488,-1470,-1464,-1474,-1492,-1511,-1522,-1527,-1530,-1533,-1528,-1511,-1488,-1469,-1464,-1463,-1463,-1457,-1447,-1432,-1413,-1390,-1361,-1341,-1337,-1353,-1375,-1396,-1412,-1427,-1446,-1467,-1489,-1502,-1504,-1493,-1472,-1446,-1424,-1408,-1396,-1385,-1370,-1347,-1322,-1298,-1269,-1235,-1203,-1177,-1158,-1147,-1147,-1153,-1165,-1184,-1205,-1229,-1250,-1271,-1293,-1315,-1336,-1351,-1361,-1366,-1370,-1369,-1365,-1361,-1358,-1356,-1356,-1360,-1363,-1364,-1363,-1361,-1365,-1376,-1390,-1405,-1429,-1459,-1484,-1505,-1523,-1540,-1561,-1583,-1607,-1637,-1659,-1670,-1675,-1681,-1687,-1696,-1706,-1716,-1727,-1738,-1747,-1756,-1762,-1769,-1775,-1782,-1788,-1793,-1798,-1804,-1810,-1818,-1826,-1834,-1841,-1850,-1856,-1860,-1863,-1868,-1873,-1877,-1880,-1886,-1893,-1899,-1904,-1908,-1912,-1915,-1919,-1920,-1921,-1923,-1924
-101,-102,-103,-104,-105,-106,-107,-107,-108,-109,-110,-110,-111,-111,-111,-112,-112,-112,-112,-112,-112,-112,-112,-112,-113,-113,-113,-113,-114,-114,-115,-116,-116,-117,-118,-119,-120,-121,-122,-123,-124,-126,-127,-128,-129,-130,-132,-133,-134,-135,-136,-137,-138,-139,-140,-141,-142,-143,-144,-144,-145,-145,-145,-146,-146,-146,-147,-147,-147,-147,-147,-147,-147,-147,-148,-148,-148,-149,-150,-150,-151,-152,-153,-154,-155,-156,-156,-157,-160,-161,-162,-162,-163,-163,-164,-164,-165,-166,-167,-168,-168,-169,-169,-170,-170,-170,-171,-171,-171,-171,-172,-172,-173,-174,-176,-178,-182,-188,-191,-192,-192,-191,-191,-190,-191,-192,-193,-194,-194,-194,-195,-196,-197,-198,-199,-200,-201,-202,-203,-204,-205,-206,-206,-206,-206,-208,-211,-212,-210,-208,-206,-207,-208,-210,-211,-213,-214,-215,-216,-217,-217,-218,-218,-219,-219,-219,-219,-220,-222,-223,-224,-226,-226,-226,-226,-226,-226,-226,-227,-227,-228,-228,-228,-229,-230,-231,-231,-232,-233,-234,-235,-236,-237,-239,-242,-244,-245,-246,-247,-248,-248,-247,-247,-247,-247,-248,-249,-250,-251,-250,-249,-249,-248,-248,-249,-250,-252,-253,-254,-254,-254,-255,-255,-255,-255,-255,-255,-257,-259,-261,-263,-264,-265,-265,-267,-269,-273,-277,-279,-277,-275,-274,-274,-275,-277,-279,-282,-285,-288,-287,-284,-283,-282,-282,-283,-285,-287,-288,-290,-292,-293,-293,-294,-295,-296,-297,-300,-302,-304,-305,-306,-307,-308,-310,-313,-315,-317,-319,-319,-320,-321,-323,-324,-326,-328,-331,-334,-336,-339,-342,-346,-349,-350,-350,-351,-354,-357,-360,-365,-369,-372,-375,-379,-384,-390,-397,-403,-409,-414,-420,-425,-430,-435,-440,-443,-444,-444,-446,-449,-452,-456,-455,-451,-455,-473,-496,-514,-526,-536,-549,-564,-580,-597,-620,-652,-692,-731,-762,-783,-800,-813,-825,-836,-847,-861,-878,-901,-928,-951,-966,-977,-984,-990,-996,-998,-998,-997,-999,-1004,-1012,-1022,-1034,-1046,-1058,-1071,-1083,-1095,-1107,-1119,-1132,-1147,-1165,-1182,-1200,-1218,-1234,-1251,-1269,-1289,-1306,-1322,-1338,-1353,-1367,-1374,-1375,-1376,-1374,-1362,-1345,-1327,-1316,-1307,-1302,-1297,-1294,-1299,-1311,-1327,-1347,-1369,-1392,-1416,-1445,-1482,-1522,-1558,-1590,-1615,-1629,-1635,-1639,-1641,-1643,-1641,-1630,-1615,-1599,-1591,-1587,-1587,-1588,-1594,-1605,-1611,-1610,-1600,-1584,-1563,-1545,-1536,-1535,-1536,-1533,-1523,-1507,-1489,-1472,-1454,-1433,-1411,-1396,-1392,-1405,-1431,-1461,-1486,-1508,-1526,-1542,-1556,-1563,-1560,-1542,-1517,-1493,-1472,-1457,-1442,-1424,-1404,-1387,-1371,-1352,-1326,-1297,-1269,-1253,-1245,-1237,-1224,-1209,-1205,-1219,-1242,-1266,-1288,-1309,-1329,-1350,-1371,-1388,-1398,-1404,-1408,-1408,-1410,-1413,-1415,-1418,-1427,-1439,-1446,-1452,-1455,-1458,-1458,-1458,-1453,-1450,-1457,-1470,-1486,-1499,-1512,-1528,-1546,-1565,-1590,-1613,-1631,-1644,-1651,-1656,-1664,-1673,-1684,-1699,-1715,-1730,-1744,-1755,-1765,-1772,-1777,-1781,-1786,-1791,-1796,-1803,-1812,-1821,-1827,-1831,-1837,-1843,-1850,-1856,-1863,-1871,-1879,-1886,-1892,-1897,-1901,-1905,-1910,-1915,-1921,-1927,-1932,-1936,-1940,-1943
-104,-105,-106,-107,-108,-109,-110,-111,-112,-112,-113,-114,-115,-116,-116,-117,-118,-118,-118,-118,-119,-119,-119,-119,-119,-119,-119,-120,-120,-121,-121,-122,-123,-124,-125,-126,-127,-128,-129,-129,-131,-132,-133,-134,-135,-136,-137,-138,-139,-140,-141,-142,-143,-143,-144,-145,-146,-146,-147,-148,-148,-149,-149,-149,-150,-150,-150,-150,-150,-150,-151,-151,-151,-152,-153,-155,-156,-156,-156,-156,-157,-157,-157,-157,-158,-158,-160,-162,-163,-164,-165,-167,-170,-171,-171,-171,-171,-172,-172,-173,-173,-173,-174,-174,-174,-175,-175,-175,-175,-175,-175,-176,-177,-178,-179,-181,-186,-190,-193,-193,-193,-192,-192,-193,-193,-194,-195,-197,-198,-198,-199,-200,-200,-201,-202,-203,-204,-205,-205,-206,-208,-209,-209,-209,-209,-210,-212,-215,-215,-213,-210,-209,-210,-212,-213,-214,-215,-216,-217,-218,-220,-221,-220,-220,-221,-222,-223,-225,-226,-226,-226,-226,-226,-226,-227,-228,-229,-230,-230,-230,-230,-230,-230,-231,-232,-234,-235,-236,-237,-237,-237,-238,-240,-245,-248,-250,-249,-248,-247,-247,-247,-248,-250,-252,-253,-254,-253,-252,-252,-251,-251,-252,-253,-255,-256,-256,-256,-256,-257,-257,-258,-258,-258,-259,-259,-260,-261,-262,-263,-265,-266,-267,-267,-268,-270,-275,-281,-284,-282,-279,-277,-276,-276,-278,-280,-283,-286,-289,-289,-286,-284,-284,-285,-287,-289,-290,-291,-292,-293,-293,-293,-294,-296,-299,-302,-304,-307,-309,-311,-311,-311,-310,-311,-312,-313,-315,-318,-320,-322,-324,-325,-326,-327,-329,-331,-335,-338,-340,-342,-341,-343,-346,-350,-353,-355,-357,-359,-361,-365,-367,-369,-372,-378,-386,-395,-404,-411,-418,-422,-426,-428,-429,-432,-436,-439,-440,-442,-446,-449,-452,-454,-453,-448,-447,-456,-472,-489,-504,-520,-537,-557,-580,-606,-637,-674,-714,-750,-778,-802,-822,-839,-855,-873,-892,-911,-929,-943,-955,-965,-974,-982,-989,-995,-1001,-1005,-1007,-1010,-1013,-1018,-1025,-1034,-1043,-1053,-1065,-1076,-1087,-1099,-1110,-1120,-1131,-1144,-1160,-1179,-1198,-1213,-1228,-1241,-1252,-1261,-1276,-1294,-1308,-1320,-1340,-1364,-1384,-1401,-1417,-1429,-1436,-1436,-1431,-1422,-1412,-1401,-1385,-1371,-1361,-1352,-1344,-1341,-1348,-1364,-1389,-1420,-1454,-1487,-1524,-1568,-1608,-1632,-1644,-1652,-1660,-1667,-1671,-1673,-1673,-1671,-1668,-1666,-1664,-1662,-1664,-1663,-1657,-1643,-1626,-1611,-1605,-1606,-1603,-1596,-1584,-1573,-1560,-1548,-1536,-1522,-1506,-1490,-1474,-1453,-1438,-1442,-1468,-1504,-1535,-1563,-1587,-1606,-1616,-1617,-1608,-1591,-1568,-1544,-1524,-1508,-1492,-1475,-1457,-1436,-1411,-1386,-1366,-1353,-1343,-1332,-1313,-1291,-1268,-1251,-1247,-1255,-1269,-1284,-1302,-1324,-1346,-1371,-1393,-1410,-1427,-1447,-1466,-1480,-1488,-1492,-1493,-1491,-1494,-1502,-1511,-1517,-1519,-1515,-1506,-1498,-1499,-1508,-1517,-1520,-1519,-1515,-1514,-1518,-1526,-1540,-1560,-1579,-1594,-1611,-1627,-1636,-1643,-1653,-1670,-1689,-1708,-1725,-1738,-1749,-1759,-1768,-1774,-1779,-1784,-1790,-1796,-1803,-1809,-1815,-1823,-1829,-1835,-1841,-1847,-1855,-1862,-1870,-1877,-1884,-1892,-1899,-1905,-1911,-1915,-1919,-1924,-1928,-1934,-1941,-1946
-107,-108,-109,-110,-111,-112,-113,-114,-115,-116,-117,-118,-119,-120,-121,-122,-122,-123,-123,-124,-124,-125,-124,-124,-125,-124,-124,-124,-125,-126,-127,-128,-129,-130,-131,-132,-133,-134,-135,-135,-136,-137,-138,-139,-140,-141,-142,-143,-144,-144,-145,-146,-147,-148,-148,-149,-150,-150,-151,-151,-152,-152,-153,-153,-154,-154,-154,-154,-154,-154,-153,-153,-153,-154,-156,-157,-160,-161,-161,-161,-161,-162,-162,-163,-164,-165,-166,-166,-167,-168,-170,-171,-172,-174,-175,-176,-177,-178,-178,-179,-178,-178,-177,-177,-177,-177,-177,-177,-177,-178,-179,-180,-181,-183,-185,-189,-194,-198,-200,-198,-196,-195,-195,-195,-196,-198,-199,-199,-200,-201,-201,-202,-203,-203,-204,-205,-206,-207,-207,-208,-209,-210,-210,-210,-210,-210,-212,-215,-216,-216,-214,-212,-212,-214,-215,-215,-216,-216,-218,-219,-222,-224,-224,-224,-225,-227,-228,-229,-228,-227,-227,-227,-228,-230,-231,-231,-232,-232,-232,-232,-232,-233,-234,-235,-237,-238,-239,-239,-240,-241,-245,-248,-250,-251,-250,-249,-248,-248,-248,-250,-251,-253,-254,-254,-254,-253,-254,-254,-253,-253,-254,-255,-256,-257,-258,-259,-260,-260,-260,-261,-262,-262,-263,-264,-264,-265,-265,-265,-266,-267,-268,-269,-269,-270,-272,-278,-284,-286,-283,-280,-278,-277,-279,-281,-285,-289,-292,-294,-291,-287,-286,-286,-288,-289,-291,-293,-295,-298,-300,-301,-301,-301,-302,-303,-304,-305,-307,-309,-311,-313,-314,-313,-313,-313,-314,-316,-318,-321,-324,-326,-328,-330,-331,-333,-336,-340,-344,-346,-347,-348,-349,-351,-353,-356,-359,-362,-366,-370,-373,-376,-381,-387,-394,-403,-413,-424,-434,-443,-448,-449,-446,-439,-433,-432,-435,-439,-443,-447,-450,-451,-452,-453,-454,-456,-461,-469,-482,-499,-518,-538,-560,-583,-606,-631,-666,-705,-741,-769,-793,-813,-828,-843,-858,-874,-891,-907,-922,-936,-950,-963,-973,-980,-986,-990,-992,-998,-1004,-1009,-1015,-1024,-1033,-1043,-1055,-1069,-1081,-1093,-1105,-1115,-1121,-1125,-1127,-1134,-1154,-1181,-1202,-1213,-1223,-1233,-1242,-1251,-1266,-1286,-1308,-1331,-1355,-1375,-1394,-1411,-1423,-1436,-1448,-1459,-1467,-1471,-1471,-1468,-1460,-1454,-1448,-1444,-1437,-1431,-1429,-1433,-1442,-1456,-1477,-1499,-1525,-1556,-1593,-1624,-1643,-1657,-1670,-1679,-1683,-1686,-1688,-1690,-1690,-1691,-1691,-1690,-1689,-1686,-1681,-1673,-1668,-1666,-1663,-1656,-1643,-1630,-1617,-1608,-1600,-1591,-1582,-1569,-1555,-1533,-1506,-1477,-1462,-1472,-1503,-1536,-1568,-1603,-1636,-1661,-1670,-1666,-1652,-1631,-1608,-1585,-1561,-1538,-1518,-1501,-1484,-1465,-1450,-1441,-1437,-1433,-1422,-1404,-1384,-1366,-1345,-1322,-1302,-1293,-1297,-1313,-1334,-1356,-1380,-1402,-1421,-1439,-1462,-1486,-1503,-1513,-1518,-1521,-1523,-1526,-1529,-1535,-1541,-1546,-1550,-1552,-1552,-1553,-1555,-1559,-1562,-1564,-1563,-1560,-1560,-1562,-1566,-1569,-1573,-1577,-1581,-1589,-1604,-1621,-1633,-1646,-1668,-1691,-1711,-1728,-1739,-1748,-1755,-1763,-1770,-1777,-1785,-1792,-1799,-1805,-1812,-1819,-1826,-1832,-1838,-1843,-1849,-1854,-1857,-1861,-1866,-1874,-1884,-1893,-1902,-1911,-1918,-1926,-1932,-1937,-1941,-1945
-111,-112,-113,-114,-114,-115,-116,-117,-118,-119,-120,-121,-122,-123,-124,-125,-126,-126,-127,-128,-129,-129,-129,-129,-129,-130,-130,-130,-130,-132,-133,-134,-135,-135,-136,-137,-138,-139,-140,-140,-141,-142,-142,-143,-144,-145,-146,-147,-148,-149,-149,-150,-151,-152,-152,-153,-154,-154,-155,-155,-156,-156,-156,-156,-157,-157,-157,-157,-158,-157,-157,-156,-157,-160,-162,-163,-164,-164,-164,-165,-166,-168,-170,-171,-172,-172,-172,-173,-173,-174,-175,-175,-176,-178,-180,-182,-184,-185,-185,-185,-185,-183,-180,-178,-178,-178,-179,-180,-181,-182,-184,-185,-187,-190,-193,-196,-199,-201,-202,-201,-200,-200,-199,-199,-199,-200,-201,-201,-202,-202,-203,-204,-204,-205,-206,-207,-208,-208,-209,-210,-210,-211,-211,-212,-212,-213,-213,-215,-218,-220,-219,-216,-214,-213,-214,-215,-216,-217,-219,-220,-222,-223,-226,-229,-230,-230,-230,-230,-230,-230,-231,-232,-232,-233,-234,-234,-234,-235,-235,-236,-237,-238,-239,-239,-239,-239,-241,-244,-250,-253,-253,-252,-250,-248,-248,-248,-250,-251,-253,-254,-254,-254,-254,-254,-254,-254,-255,-256,-256,-256,-256,-256,-257,-258,-258,-259,-261,-262,-264,-265,-266,-266,-266,-266,-266,-266,-267,-267,-268,-269,-270,-271,-272,-274,-277,-283,-287,-287,-285,-283,-281,-281,-281,-283,-286,-290,-295,-296,-293,-290,-291,-293,-294,-294,-295,-296,-298,-299,-301,-302,-304,-305,-306,-306,-306,-306,-307,-310,-312,-314,-317,-318,-318,-319,-321,-322,-324,-327,-330,-333,-335,-335,-335,-336,-338,-340,-342,-344,-346,-349,-351,-354,-357,-360,-362,-365,-367,-371,-375,-381,-388,-396,-405,-415,-426,-437,-449,-456,-457,-450,-441,-437,-437,-438,-440,-442,-443,-445,-448,-450,-453,-456,-458,-461,-465,-473,-486,-502,-518,-534,-553,-576,-600,-627,-661,-701,-735,-761,-780,-797,-813,-830,-847,-864,-882,-897,-909,-918,-927,-934,-941,-947,-954,-961,-968,-974,-978,-981,-988,-999,-1011,-1028,-1047,-1065,-1076,-1083,-1088,-1089,-1090,-1094,-1099,-1106,-1119,-1145,-1178,-1199,-1204,-1201,-1209,-1230,-1249,-1264,-1281,-1299,-1317,-1337,-1352,-1364,-1376,-1393,-1413,-1435,-1459,-1478,-1491,-1501,-1508,-1513,-1517,-1521,-1524,-1526,-1527,-1530,-1537,-1545,-1555,-1565,-1575,-1586,-1596,-1607,-1620,-1635,-1651,-1668,-1684,-1693,-1698,-1700,-1702,-1704,-1705,-1706,-1707,-1709,-1711,-1714,-1716,-1716,-1712,-1705,-1695,-1684,-1672,-1661,-1654,-1644,-1634,-1621,-1609,-1593,-1570,-1548,-1530,-1528,-1540,-1564,-1589,-1617,-1653,-1695,-1726,-1734,-1726,-1710,-1688,-1663,-1633,-1604,-1581,-1564,-1551,-1540,-1529,-1523,-1518,-1512,-1501,-1488,-1473,-1453,-1430,-1406,-1385,-1362,-1340,-1330,-1337,-1356,-1378,-1400,-1420,-1437,-1456,-1478,-1500,-1514,-1523,-1530,-1535,-1539,-1543,-1547,-1552,-1557,-1562,-1568,-1573,-1579,-1583,-1587,-1590,-1591,-1592,-1593,-1595,-1598,-1602,-1608,-1614,-1621,-1624,-1624,-1621,-1621,-1625,-1635,-1652,-1674,-1694,-1712,-1726,-1735,-1742,-1748,-1754,-1762,-1772,-1782,-1792,-1800,-1807,-1813,-1818,-1823,-1828,-1834,-1839,-1844,-1848,-1852,-1856,-1861,-1867,-1873,-1881,-1891,-1901,-1911,-1921,-1930,-1939,-1947
-115,-116,-117,-118,-119,-119,-120,-121,-122,-123,-124,-124,-125,-125,-126,-127,-128,-128,-129,-130,-132,-134,-135,-135,-135,-136,-137,-137,-138,-138,-138,-139,-139,-140,-141,-142,-142,-143,-144,-144,-145,-146,-147,-147,-148,-149,-150,-151,-152,-152,-153,-154,-155,-155,-156,-157,-157,-158,-158,-159,-159,-159,-159,-159,-159,-159,-159,-160,-160,-161,-161,-163,-166,-168,-168,-169,-169,-169,-170,-171,-172,-173,-174,-176,-176,-177,-177,-178,-179,-180,-181,-180,-180,-180,-181,-183,-184,-186,-186,-186,-183,-182,-182,-181,-181,-182,-182,-184,-185,-188,-190,-194,-197,-200,-203,-205,-205,-205,-204,-204,-203,-203,-202,-202,-202,-202,-202,-202,-203,-203,-204,-205,-206,-207,-208,-209,-209,-210,-211,-212,-212,-213,-214,-215,-215,-216,-216,-216,-217,-219,-222,-223,-222,-222,-222,-223,-225,-226,-227,-229,-230,-231,-232,-232,-231,-230,-230,-230,-231,-233,-234,-235,-235,-236,-236,-237,-237,-238,-239,-239,-240,-241,-243,-243,-244,-247,-249,-250,-250,-249,-247,-247,-248,-249,-250,-251,-253,-254,-255,-254,-254,-254,-254,-255,-255,-255,-255,-256,-257,-257,-257,-257,-258,-260,-261,-263,-263,-263,-263,-264,-264,-265,-266,-267,-268,-269,-270,-271,-272,-272,-273,-273,-274,-276,-280,-285,-288,-287,-285,-284,-285,-285,-286,-289,-291,-294,-298,-298,-296,-294,-295,-296,-297,-298,-299,-299,-300,-301,-302,-303,-304,-306,-307,-308,-309,-310,-311,-312,-314,-316,-317,-319,-321,-324,-327,-329,-331,-333,-335,-337,-339,-340,-340,-340,-341,-343,-345,-347,-349,-351,-353,-357,-359,-362,-366,-370,-372,-375,-378,-383,-389,-396,-403,-411,-419,-428,-436,-439,-435,-427,-426,-428,-431,-435,-438,-441,-444,-447,-450,-454,-457,-461,-465,-470,-476,-485,-498,-515,-534,-553,-576,-605,-636,-667,-696,-721,-742,-758,-772,-787,-802,-815,-827,-839,-849,-858,-866,-874,-882,-886,-889,-893,-896,-898,-897,-898,-900,-905,-913,-928,-950,-975,-1000,-1020,-1029,-1028,-1029,-1034,-1042,-1049,-1055,-1061,-1074,-1097,-1123,-1136,-1139,-1145,-1151,-1162,-1179,-1198,-1218,-1236,-1250,-1265,-1285,-1307,-1331,-1355,-1377,-1400,-1425,-1451,-1474,-1497,-1515,-1528,-1536,-1540,-1544,-1549,-1555,-1562,-1569,-1578,-1588,-1598,-1606,-1613,-1620,-1626,-1632,-1639,-1649,-1662,-1678,-1691,-1700,-1705,-1709,-1712,-1716,-1719,-1721,-1724,-1726,-1729,-1732,-1734,-1738,-1741,-1741,-1739,-1735,-1730,-1725,-1716,-1703,-1688,-1672,-1658,-1644,-1627,-1613,-1610,-1618,-1629,-1643,-1661,-1688,-1721,-1757,-1779,-1783,-1772,-1753,-1729,-1703,-1677,-1654,-1632,-1616,-1608,-1604,-1599,-1590,-1575,-1557,-1539,-1525,-1515,-1503,-1489,-1473,-1451,-1425,-1399,-1372,-1356,-1358,-1375,-1397,-1419,-1442,-1468,-1493,-1511,-1523,-1532,-1541,-1549,-1555,-1560,-1565,-1571,-1577,-1583,-1587,-1592,-1598,-1604,-1609,-1613,-1616,-1620,-1624,-1629,-1633,-1640,-1648,-1656,-1662,-1666,-1667,-1667,-1667,-1665,-1666,-1671,-1683,-1698,-1711,-1721,-1731,-1740,-1748,-1754,-1761,-1770,-1780,-1789,-1797,-1803,-1808,-1813,-1818,-1824,-1831,-1837,-1841,-1846,-1850,-1856,-1861,-1865,-1871,-1878,-1884,-1892,-1901,-1912,-1925,-1936
-118,-120,-121,-122,-122,-123,-124,-124,-125,-126,-127,-127,-128,-129,-129,-130,-131,-133,-134,-136,-137,-138,-140,-142,-143,-143,-144,-144,-146,-146,-146,-145,-145,-145,-146,-146,-147,-147,-148,-149,-149,-150,-151,-151,-152,-153,-154,-154,-155,-156,-157,-157,-158,-159,-159,-160,-161,-161,-161,-162,-162,-162,-162,-163,-162,-162,-162,-162,-163,-164,-167,-170,-172,-173,-173,-173,-173,-174,-175,-176,-177,-178,-179,-179,-180,-181,-181,-183,-184,-185,-185,-184,-184,-184,-185,-185,-186,-187,-188,-189,-189,-189,-188,-187,-186,-186,-187,-188,-191,-193,-196,-200,-204,-208,-211,-213,-213,-211,-209,-208,-206,-206,-205,-204,-203,-203,-202,-203,-204,-205,-205,-206,-207,-208,-209,-210,-211,-212,-213,-214,-214,-215,-216,-216,-217,-217,-217,-217,-217,-218,-220,-221,-222,-222,-223,-225,-226,-227,-227,-227,-227,-229,-232,-236,-237,-236,-234,-232,-231,-232,-235,-238,-239,-239,-240,-240,-241,-241,-241,-242,-243,-244,-247,-250,-250,-249,-248,-248,-248,-248,-249,-251,-253,-254,-254,-253,-253,-253,-254,-254,-255,-255,-255,-256,-256,-257,-257,-257,-257,-258,-259,-260,-261,-262,-264,-266,-266,-265,-266,-266,-266,-266,-267,-269,-271,-272,-272,-273,-274,-274,-274,-275,-278,-282,-287,-290,-290,-288,-287,-287,-287,-288,-290,-292,-295,-298,-300,-298,-295,-294,-295,-296,-297,-298,-300,-301,-303,-304,-306,-307,-308,-309,-309,-310,-311,-312,-313,-314,-315,-316,-317,-318,-320,-322,-325,-328,-331,-332,-333,-335,-337,-340,-343,-344,-345,-346,-347,-350,-355,-358,-359,-359,-361,-363,-366,-370,-373,-377,-381,-385,-389,-393,-397,-401,-405,-408,-411,-415,-418,-422,-425,-429,-432,-436,-439,-444,-448,-453,-457,-461,-466,-472,-480,-492,-506,-522,-542,-561,-582,-606,-628,-638,-642,-646,-650,-658,-674,-693,-707,-722,-739,-754,-765,-773,-779,-786,-799,-817,-835,-844,-844,-840,-834,-830,-820,-807,-801,-812,-834,-856,-879,-894,-905,-919,-937,-944,-944,-951,-964,-979,-994,-1015,-1038,-1057,-1062,-1051,-1033,-1024,-1032,-1052,-1076,-1099,-1122,-1145,-1175,-1201,-1222,-1244,-1271,-1299,-1327,-1356,-1382,-1404,-1423,-1441,-1457,-1471,-1485,-1495,-1508,-1526,-1547,-1564,-1576,-1587,-1596,-1605,-1617,-1627,-1635,-1640,-1646,-1653,-1660,-1668,-1677,-1686,-1696,-1706,-1714,-1720,-1725,-1729,-1733,-1737,-1741,-1745,-1747,-1750,-1754,-1757,-1761,-1765,-1768,-1770,-1769,-1764,-1758,-1753,-1747,-1738,-1725,-1705,-1688,-1681,-1689,-1702,-1710,-1716,-1730,-1753,-1781,-1806,-1817,-1815,-1800,-1777,-1753,-1736,-1724,-1711,-1698,-1688,-1680,-1669,-1655,-1639,-1624,-1609,-1589,-1561,-1532,-1511,-1495,-1476,-1450,-1423,-1398,-1376,-1363,-1362,-1376,-1401,-1427,-1453,-1473,-1488,-1499,-1512,-1527,-1541,-1555,-1567,-1576,-1584,-1590,-1596,-1601,-1606,-1611,-1616,-1622,-1628,-1633,-1637,-1642,-1646,-1652,-1659,-1667,-1677,-1685,-1691,-1696,-1699,-1702,-1706,-1710,-1712,-1713,-1714,-1718,-1724,-1732,-1741,-1750,-1757,-1764,-1770,-1776,-1782,-1789,-1796,-1803,-1811,-1817,-1822,-1827,-1831,-1834,-1839,-1843,-1849,-1855,-1861,-1867,-1873,-1880,-1886,-1893,-1902,-1913,-1926
-122,-123,-124,-125,-126,-126,-127,-127,-128,-130,-131,-131,-131,-132,-133,-134,-135,-136,-138,-139,-141,-142,-144,-145,-147,-148,-148,-148,-148,-149,-149,-150,-150,-149,-149,-149,-150,-151,-152,-152,-153,-154,-154,-155,-156,-156,-157,-158,-158,-159,-160,-160,-161,-162,-162,-163,-164,-164,-164,-165,-165,-165,-165,-165,-165,-165,-165,-167,-169,-172,-174,-176,-175,-175,-176,-177,-177,-177,-178,-179,-179,-180,-181,-182,-182,-183,-184,-185,-186,-186,-187,-188,-187,-186,-185,-185,-187,-189,-190,-191,-192,-193,-193,-194,-194,-194,-194,-194,-196,-198,-200,-203,-207,-211,-215,-218,-218,-215,-211,-209,-208,-207,-207,-206,-206,-205,-205,-206,-207,-207,-207,-208,-209,-210,-211,-212,-213,-214,-215,-216,-216,-217,-218,-218,-219,-219,-219,-220,-220,-222,-223,-224,-224,-225,-227,-229,-230,-231,-232,-231,-231,-230,-231,-234,-237,-240,-240,-238,-236,-235,-237,-239,-240,-241,-242,-243,-244,-245,-245,-246,-249,-250,-250,-249,-249,-249,-250,-251,-253,-254,-254,-254,-254,-254,-254,-254,-254,-254,-255,-255,-255,-256,-256,-256,-257,-258,-259,-259,-260,-261,-261,-262,-263,-264,-265,-267,-268,-268,-268,-269,-269,-270,-270,-271,-272,-274,-275,-276,-277,-277,-278,-278,-280,-286,-293,-294,-291,-289,-288,-288,-289,-291,-293,-297,-300,-302,-302,-299,-297,-298,-299,-300,-302,-303,-304,-305,-307,-308,-309,-311,-312,-312,-313,-313,-313,-313,-313,-314,-314,-315,-316,-318,-320,-322,-324,-328,-332,-336,-338,-340,-341,-344,-347,-350,-351,-351,-352,-354,-357,-361,-363,-365,-366,-368,-370,-373,-375,-378,-382,-385,-389,-392,-395,-398,-401,-406,-410,-414,-419,-424,-428,-432,-436,-440,-445,-450,-455,-461,-467,-475,-483,-491,-506,-528,-555,-588,-623,-648,-666,-685,-703,-711,-709,-704,-695,-682,-675,-677,-683,-687,-696,-706,-714,-716,-720,-734,-757,-784,-804,-812,-805,-792,-779,-765,-752,-745,-746,-753,-769,-781,-781,-779,-785,-795,-807,-824,-843,-865,-884,-901,-917,-929,-939,-953,-961,-957,-951,-952,-969,-994,-1022,-1050,-1076,-1100,-1123,-1145,-1168,-1197,-1229,-1257,-1277,-1287,-1296,-1308,-1326,-1343,-1358,-1367,-1376,-1386,-1405,-1436,-1471,-1501,-1528,-1552,-1570,-1580,-1588,-1597,-1607,-1617,-1625,-1634,-1646,-1660,-1674,-1685,-1694,-1703,-1713,-1722,-1731,-1739,-1745,-1749,-1753,-1757,-1761,-1766,-1770,-1775,-1778,-1781,-1784,-1787,-1790,-1791,-1792,-1792,-1792,-1792,-1791,-1787,-1780,-1774,-1770,-1768,-1766,-1766,-1771,-1785,-1803,-1820,-1832,-1835,-1830,-1822,-1812,-1803,-1793,-1785,-1776,-1761,-1743,-1725,-1710,-1690,-1664,-1634,-1603,-1568,-1532,-1505,-1490,-1482,-1470,-1454,-1445,-1444,-1440,-1434,-1430,-1431,-1431,-1431,-1437,-1449,-1465,-1480,-1496,-1513,-1535,-1554,-1567,-1579,-1590,-1599,-1607,-1613,-1620,-1627,-1633,-1639,-1645,-1650,-1656,-1662,-1668,-1674,-1682,-1691,-1698,-1705,-1712,-1718,-1723,-1727,-1730,-1734,-1738,-1742,-1744,-1745,-1748,-1753,-1759,-1767,-1774,-1781,-1786,-1791,-1796,-1802,-1808,-1814,-1819,-1823,-1827,-1830,-1832,-1835,-1839,-1844,-1850,-1857,-1863,-1870,-1877,-1884,-1890,-1897,-1905,-1913
-127,-128,-129,-130,-130,-131,-131,-132,-132,-133,-134,-135,-136,-137,-137,-138,-139,-140,-141,-142,-143,-145,-146,-147,-148,-149,-150,-150,-151,-152,-153,-154,-154,-153,-153,-153,-154,-155,-155,-156,-157,-157,-158,-158,-159,-159,-160,-160,-161,-161,-162,-163,-164,-164,-165,-166,-167,-168,-168,-167,-167,-167,-167,-168,-168,-169,-170,-171,-174,-176,-176,-177,-177,-177,-178,-181,-183,-184,-184,-183,-182,-182,-183,-183,-184,-185,-186,-187,-187,-187,-187,-189,-191,-192,-192,-190,-187,-187,-189,-191,-193,-194,-195,-196,-196,-197,-197,-198,-199,-199,-200,-202,-204,-207,-211,-218,-222,-221,-218,-214,-211,-210,-209,-209,-209,-210,-210,-211,-213,-213,-213,-213,-213,-214,-214,-215,-215,-216,-217,-218,-218,-219,-220,-221,-221,-222,-223,-224,-226,-228,-230,-232,-233,-233,-233,-234,-234,-234,-234,-234,-234,-234,-234,-235,-239,-242,-244,-243,-241,-238,-238,-239,-242,-245,-246,-248,-249,-251,-251,-250,-249,-249,-250,-251,-253,-254,-255,-256,-256,-256,-256,-256,-256,-256,-256,-256,-257,-257,-257,-257,-257,-258,-259,-261,-263,-263,-263,-263,-263,-263,-264,-265,-266,-267,-269,-270,-270,-270,-271,-271,-272,-273,-275,-276,-277,-278,-278,-278,-279,-280,-282,-283,-286,-290,-294,-295,-294,-292,-292,-292,-293,-295,-298,-301,-304,-307,-309,-308,-306,-305,-305,-306,-307,-308,-309,-310,-311,-312,-313,-314,-315,-316,-317,-318,-317,-316,-314,-312,-309,-308,-309,-315,-321,-324,-328,-333,-338,-342,-345,-347,-348,-351,-354,-358,-360,-360,-360,-360,-361,-362,-364,-366,-367,-369,-371,-374,-376,-379,-382,-385,-388,-391,-395,-398,-402,-406,-411,-417,-423,-427,-431,-435,-438,-442,-447,-453,-462,-475,-491,-507,-516,-525,-546,-577,-610,-642,-670,-696,-720,-740,-754,-764,-774,-781,-787,-788,-785,-779,-774,-775,-787,-799,-801,-793,-787,-797,-819,-843,-858,-865,-862,-855,-844,-833,-820,-808,-801,-790,-781,-772,-761,-747,-739,-739,-743,-752,-765,-775,-780,-784,-793,-808,-825,-842,-861,-882,-907,-931,-957,-986,-1012,-1033,-1050,-1070,-1090,-1107,-1122,-1135,-1147,-1157,-1169,-1181,-1198,-1217,-1234,-1250,-1260,-1268,-1278,-1296,-1323,-1355,-1384,-1410,-1436,-1459,-1473,-1481,-1494,-1510,-1523,-1528,-1531,-1538,-1554,-1578,-1603,-1625,-1647,-1671,-1694,-1711,-1724,-1732,-1739,-1746,-1754,-1761,-1768,-1776,-1783,-1789,-1793,-1795,-1798,-1801,-1805,-1809,-1812,-1814,-1816,-1817,-1818,-1820,-1821,-1822,-1822,-1822,-1822,-1819,-1816,-1815,-1820,-1829,-1839,-1845,-1847,-1845,-1840,-1833,-1825,-1817,-1808,-1793,-1773,-1750,-1725,-1698,-1672,-1645,-1618,-1596,-1581,-1567,-1555,-1545,-1535,-1527,-1526,-1531,-1532,-1530,-1523,-1515,-1508,-1509,-1518,-1531,-1538,-1536,-1530,-1526,-1525,-1529,-1535,-1544,-1557,-1572,-1587,-1600,-1611,-1621,-1631,-1640,-1648,-1655,-1663,-1670,-1677,-1684,-1691,-1698,-1706,-1712,-1719,-1726,-1733,-1739,-1745,-1749,-1753,-1757,-1761,-1766,-1769,-1770,-1771,-1775,-1781,-1787,-1792,-1797,-1802,-1807,-1813,-1819,-1823,-1827,-1831,-1835,-1838,-1841,-1845,-1849,-1853,-1858,-1863,-1869,-1876,-1884,-1890,-1897,-1903,-1910
-132,-133,-134,-134,-135,-136,-136,-137,-137,-138,-139,-140,-140,-141,-142,-142,-143,-144,-145,-145,-146,-147,-148,-149,-150,-151,-152,-153,-154,-155,-156,-157,-157,-158,-158,-158,-158,-159,-160,-160,-160,-161,-161,-161,-161,-161,-162,-162,-162,-163,-164,-165,-165,-166,-167,-168,-169,-170,-170,-169,-169,-169,-170,-172,-174,-176,-176,-176,-176,-177,-177,-178,-179,-179,-179,-180,-183,-186,-187,-187,-186,-186,-187,-188,-189,-190,-190,-189,-188,-188,-188,-186,-187,-191,-194,-195,-194,-192,-190,-192,-194,-197,-197,-198,-199,-200,-201,-202,-202,-202,-202,-203,-204,-205,-206,-208,-212,-214,-214,-214,-213,-212,-212,-213,-213,-214,-215,-215,-216,-215,-215,-215,-216,-216,-217,-217,-218,-218,-219,-219,-220,-222,-223,-224,-225,-227,-228,-229,-232,-233,-233,-233,-234,-235,-234,-234,-235,-236,-237,-237,-238,-238,-239,-238,-240,-243,-246,-247,-246,-246,-247,-248,-249,-251,-252,-252,-250,-249,-249,-250,-251,-252,-253,-254,-255,-256,-257,-257,-257,-257,-257,-257,-258,-258,-258,-259,-259,-259,-260,-260,-260,-261,-262,-263,-264,-265,-265,-266,-268,-268,-268,-269,-270,-271,-272,-273,-274,-275,-275,-275,-275,-276,-277,-278,-280,-281,-282,-283,-284,-285,-287,-289,-294,-299,-301,-299,-297,-296,-295,-295,-296,-298,-301,-303,-306,-310,-312,-313,-313,-312,-312,-312,-312,-313,-313,-314,-315,-315,-316,-318,-319,-320,-321,-322,-323,-322,-319,-316,-312,-308,-306,-309,-318,-328,-333,-336,-341,-347,-351,-354,-355,-356,-356,-358,-359,-360,-361,-362,-363,-364,-365,-366,-368,-369,-371,-373,-375,-377,-380,-382,-385,-389,-393,-398,-404,-410,-416,-421,-426,-429,-432,-435,-439,-444,-451,-464,-481,-502,-523,-539,-545,-553,-581,-624,-659,-683,-701,-719,-735,-745,-757,-773,-789,-801,-815,-825,-835,-844,-852,-859,-864,-871,-875,-874,-871,-876,-890,-907,-920,-925,-924,-920,-918,-918,-925,-932,-929,-910,-884,-865,-854,-849,-838,-816,-792,-777,-771,-774,-787,-797,-797,-792,-789,-790,-803,-830,-863,-892,-914,-938,-961,-980,-1000,-1021,-1041,-1053,-1057,-1060,-1066,-1078,-1094,-1112,-1126,-1137,-1142,-1149,-1163,-1182,-1201,-1222,-1247,-1273,-1297,-1319,-1337,-1351,-1364,-1384,-1408,-1427,-1432,-1423,-1413,-1422,-1446,-1476,-1509,-1546,-1582,-1611,-1636,-1661,-1685,-1703,-1717,-1728,-1738,-1751,-1764,-1776,-1783,-1789,-1794,-1798,-1802,-1807,-1812,-1817,-1822,-1826,-1830,-1833,-1836,-1839,-1841,-1843,-1845,-1846,-1847,-1849,-1850,-1850,-1850,-1850,-1854,-1859,-1862,-1861,-1858,-1852,-1845,-1837,-1828,-1818,-1807,-1789,-1767,-1748,-1733,-1718,-1702,-1685,-1670,-1657,-1642,-1628,-1618,-1611,-1608,-1609,-1608,-1603,-1598,-1593,-1590,-1598,-1616,-1635,-1645,-1647,-1639,-1629,-1616,-1600,-1581,-1560,-1547,-1542,-1548,-1564,-1580,-1595,-1609,-1621,-1631,-1640,-1649,-1659,-1670,-1681,-1690,-1698,-1707,-1715,-1723,-1730,-1737,-1744,-1751,-1758,-1764,-1769,-1773,-1777,-1782,-1786,-1790,-1792,-1794,-1797,-1801,-1807,-1811,-1815,-1819,-1824,-1828,-1833,-1837,-1841,-1844,-1848,-1852,-1856,-1861,-1865,-1870,-1876,-1882,-1888,-1895,-1902,-1908,-1916
-140,-140,-141,-141,-141,-141,-141,-142,-142,-143,-143,-144,-144,-145,-146,-146,-147,-147,-148,-149,-149,-150,-151,-151,-152,-153,-154,-155,-156,-157,-158,-159,-160,-161,-162,-162,-162,-163,-163,-164,-164,-164,-164,-163,-163,-163,-163,-163,-164,-164,-166,-167,-168,-168,-169,-169,-169,-169,-170,-170,-171,-172,-174,-177,-180,-181,-181,-180,-180,-180,-181,-181,-181,-181,-182,-183,-185,-187,-189,-189,-190,-190,-191,-191,-192,-191,-190,-188,-186,-184,-184,-185,-186,-189,-193,-195,-197,-198,-199,-199,-199,-199,-200,-201,-202,-203,-204,-205,-206,-206,-207,-207,-207,-207,-207,-209,-212,-215,-215,-215,-215,-215,-215,-216,-216,-217,-218,-218,-219,-220,-220,-219,-219,-220,-220,-220,-220,-221,-222,-223,-225,-227,-229,-230,-230,-230,-232,-233,-233,-233,-234,-235,-235,-235,-236,-236,-237,-239,-240,-240,-241,-241,-242,-242,-243,-245,-248,-249,-248,-246,-247,-251,-253,-253,-252,-251,-251,-251,-251,-252,-253,-254,-255,-256,-255,-256,-256,-256,-257,-258,-258,-258,-259,-260,-260,-261,-261,-262,-262,-263,-264,-264,-266,-267,-267,-268,-268,-268,-270,-271,-273,-273,-273,-274,-275,-275,-275,-276,-277,-279,-279,-280,-281,-282,-284,-285,-286,-287,-288,-289,-291,-294,-298,-302,-302,-300,-298,-297,-297,-298,-299,-302,-304,-308,-312,-314,-315,-315,-316,-316,-316,-316,-316,-316,-317,-317,-318,-319,-320,-321,-322,-323,-324,-325,-326,-327,-327,-326,-325,-324,-324,-325,-328,-332,-335,-338,-340,-342,-344,-346,-349,-352,-354,-356,-358,-360,-361,-362,-363,-364,-365,-366,-367,-368,-370,-372,-375,-378,-382,-386,-390,-394,-398,-403,-407,-412,-417,-422,-426,-430,-434,-438,-443,-449,-458,-471,-489,-512,-531,-538,-538,-554,-591,-635,-673,-703,-729,-750,-771,-786,-799,-811,-821,-830,-838,-847,-856,-868,-882,-896,-910,-924,-936,-944,-949,-953,-960,-971,-987,-996,-1001,-1007,-1017,-1030,-1042,-1050,-1047,-1031,-1007,-985,-967,-951,-937,-921,-897,-869,-851,-846,-859,-880,-899,-901,-884,-855,-830,-822,-827,-838,-849,-862,-879,-896,-915,-931,-946,-958,-963,-965,-971,-986,-1002,-1019,-1034,-1048,-1056,-1060,-1072,-1095,-1123,-1152,-1183,-1213,-1236,-1253,-1262,-1269,-1285,-1308,-1329,-1343,-1348,-1338,-1326,-1329,-1352,-1383,-1415,-1449,-1486,-1521,-1555,-1588,-1614,-1629,-1638,-1648,-1664,-1690,-1721,-1749,-1768,-1781,-1790,-1797,-1803,-1809,-1814,-1820,-1825,-1831,-1836,-1841,-1846,-1850,-1855,-1858,-1862,-1865,-1868,-1871,-1872,-1873,-1875,-1878,-1880,-1883,-1885,-1883,-1878,-1874,-1871,-1867,-1860,-1853,-1847,-1843,-1838,-1832,-1821,-1809,-1798,-1788,-1773,-1756,-1740,-1723,-1705,-1689,-1677,-1673,-1679,-1690,-1699,-1704,-1703,-1701,-1704,-1716,-1725,-1729,-1726,-1715,-1696,-1673,-1649,-1625,-1605,-1585,-1567,-1560,-1567,-1581,-1593,-1606,-1618,-1629,-1640,-1650,-1659,-1669,-1679,-1689,-1698,-1707,-1715,-1724,-1733,-1741,-1749,-1757,-1763,-1769,-1777,-1785,-1791,-1796,-1800,-1802,-1806,-1810,-1814,-1816,-1818,-1823,-1827,-1831,-1836,-1842,-1848,-1853,-1857,-1861,-1866,-1870,-1874,-1879,-1883,-1887,-1892,-1898,-1904,-1911,-1918,-1926
-143,-144,-144,-145,-145,-145,-145,-146,-146,-146,-147,-147,-148,-149,-149,-150,-150,-151,-151,-152,-152,-153,-154,-154,-155,-156,-157,-158,-158,-159,-160,-161,-161,-162,-163,-163,-164,-165,-165,-166,-166,-166,-166,-165,-165,-165,-165,-166,-166,-167,-169,-170,-171,-171,-171,-171,-171,-172,-173,-174,-176,-178,-180,-182,-183,-183,-183,-183,-184,-185,-186,-185,-183,-183,-184,-185,-187,-188,-188,-189,-190,-191,-192,-193,-193,-192,-190,-189,-190,-192,-194,-195,-196,-197,-198,-199,-200,-200,-201,-202,-202,-202,-202,-203,-203,-204,-205,-205,-206,-207,-208,-209,-209,-210,-211,-211,-212,-214,-217,-218,-219,-218,-219,-219,-219,-219,-219,-219,-220,-221,-222,-222,-222,-222,-222,-222,-223,-223,-224,-226,-228,-229,-231,-233,-235,-235,-235,-235,-236,-236,-236,-237,-238,-238,-239,-240,-241,-242,-242,-242,-243,-243,-243,-244,-245,-246,-248,-250,-249,-248,-246,-246,-247,-250,-252,-253,-254,-255,-255,-255,-255,-255,-257,-258,-258,-258,-259,-259,-259,-260,-260,-261,-262,-264,-264,-264,-264,-264,-265,-266,-266,-267,-268,-269,-270,-271,-273,-273,-273,-274,-275,-275,-275,-276,-277,-279,-281,-282,-283,-283,-283,-284,-285,-286,-287,-288,-289,-291,-293,-297,-300,-304,-306,-305,-303,-300,-299,-298,-298,-300,-302,-305,-309,-313,-317,-319,-320,-320,-320,-320,-320,-320,-320,-320,-320,-320,-321,-322,-323,-324,-325,-326,-327,-328,-330,-331,-332,-333,-333,-334,-335,-336,-337,-338,-340,-342,-343,-345,-347,-349,-351,-353,-355,-357,-359,-361,-363,-364,-365,-366,-367,-367,-368,-370,-372,-375,-378,-383,-387,-391,-395,-398,-401,-404,-408,-413,-418,-424,-429,-434,-439,-443,-447,-453,-462,-475,-494,-516,-533,-538,-533,-540,-576,-624,-666,-698,-728,-750,-772,-797,-811,-818,-827,-838,-846,-855,-864,-875,-891,-906,-920,-937,-955,-975,-994,-1012,-1029,-1043,-1053,-1068,-1086,-1107,-1123,-1135,-1140,-1139,-1133,-1118,-1098,-1075,-1053,-1029,-1008,-996,-991,-986,-975,-958,-951,-964,-988,-1005,-997,-972,-939,-914,-897,-888,-884,-886,-896,-908,-920,-929,-938,-945,-950,-954,-962,-977,-998,-1025,-1052,-1076,-1090,-1093,-1086,-1079,-1086,-1106,-1136,-1161,-1178,-1184,-1181,-1180,-1189,-1206,-1222,-1236,-1247,-1251,-1254,-1261,-1279,-1304,-1336,-1371,-1406,-1444,-1481,-1509,-1522,-1531,-1545,-1572,-1607,-1643,-1674,-1699,-1722,-1743,-1764,-1782,-1797,-1809,-1817,-1823,-1828,-1834,-1840,-1846,-1852,-1857,-1862,-1867,-1872,-1876,-1880,-1885,-1890,-1895,-1900,-1905,-1909,-1909,-1909,-1908,-1905,-1901,-1898,-1896,-1892,-1886,-1881,-1877,-1875,-1874,-1873,-1869,-1865,-1860,-1853,-1844,-1832,-1814,-1794,-1776,-1763,-1759,-1769,-1791,-1808,-1814,-1808,-1799,-1791,-1787,-1788,-1789,-1786,-1774,-1758,-1738,-1713,-1684,-1655,-1625,-1599,-1584,-1584,-1593,-1604,-1614,-1625,-1636,-1645,-1653,-1661,-1668,-1674,-1681,-1688,-1696,-1705,-1714,-1722,-1729,-1735,-1740,-1744,-1748,-1754,-1763,-1772,-1782,-1790,-1796,-1801,-1807,-1814,-1817,-1818,-1819,-1823,-1829,-1834,-1840,-1846,-1853,-1858,-1862,-1865,-1869,-1875,-1880,-1883,-1886,-1888,-1890,-1891,-1892,-1895,-1901
-146,-147,-148,-148,-149,-149,-150,-150,-150,-150,-151,-151,-151,-152,-152,-153,-153,-153,-154,-155,-155,-156,-157,-158,-158,-159,-160,-160,-161,-162,-162,-163,-163,-163,-163,-164,-164,-164,-164,-165,-165,-166,-167,-169,-169,-169,-169,-170,-170,-171,-171,-172,-172,-172,-173,-173,-175,-177,-179,-182,-184,-185,-185,-185,-185,-184,-184,-185,-187,-189,-189,-190,-189,-189,-189,-190,-190,-190,-191,-192,-193,-194,-194,-194,-195,-195,-196,-197,-198,-199,-199,-200,-201,-203,-204,-206,-206,-207,-206,-206,-206,-206,-206,-207,-207,-208,-209,-210,-211,-211,-211,-212,-212,-213,-215,-217,-218,-218,-219,-219,-219,-220,-221,-222,-223,-223,-222,-222,-223,-224,-224,-225,-225,-225,-227,-228,-228,-228,-229,-231,-233,-234,-235,-236,-237,-237,-238,-237,-238,-238,-239,-240,-241,-241,-242,-242,-243,-244,-244,-245,-245,-246,-246,-245,-245,-246,-249,-252,-254,-253,-252,-252,-252,-253,-255,-256,-256,-256,-256,-257,-258,-258,-259,-259,-260,-260,-261,-261,-262,-262,-262,-262,-264,-265,-265,-266,-266,-267,-268,-270,-272,-273,-273,-273,-273,-274,-276,-276,-276,-277,-277,-278,-280,-282,-284,-286,-287,-287,-287,-287,-287,-287,-287,-288,-289,-290,-291,-295,-299,-304,-308,-310,-310,-307,-304,-301,-301,-300,-301,-302,-305,-308,-312,-317,-321,-324,-325,-325,-325,-324,-324,-324,-323,-323,-324,-324,-325,-326,-327,-328,-329,-330,-331,-332,-333,-334,-335,-336,-337,-339,-340,-341,-342,-343,-344,-346,-347,-348,-349,-351,-353,-354,-357,-359,-361,-364,-366,-368,-369,-370,-372,-373,-374,-375,-376,-378,-381,-385,-389,-393,-396,-400,-404,-408,-412,-417,-422,-427,-431,-435,-440,-443,-448,-453,-458,-468,-484,-501,-513,-509,-495,-495,-522,-565,-604,-633,-659,-688,-711,-727,-747,-769,-794,-818,-834,-842,-848,-857,-873,-894,-915,-930,-944,-962,-984,-1004,-1029,-1060,-1091,-1116,-1137,-1156,-1173,-1185,-1192,-1192,-1190,-1181,-1163,-1138,-1114,-1100,-1095,-1096,-1092,-1077,-1054,-1040,-1047,-1072,-1102,-1125,-1130,-1110,-1078,-1047,-1027,-1011,-999,-991,-992,-1004,-1018,-1035,-1050,-1064,-1071,-1073,-1071,-1078,-1095,-1116,-1135,-1153,-1172,-1180,-1179,-1175,-1176,-1184,-1199,-1217,-1230,-1237,-1235,-1225,-1215,-1215,-1231,-1252,-1271,-1281,-1283,-1280,-1279,-1283,-1294,-1310,-1328,-1348,-1372,-1397,-1420,-1444,-1474,-1511,-1546,-1571,-1590,-1612,-1644,-1681,-1715,-1747,-1771,-1787,-1799,-1809,-1820,-1830,-1839,-1847,-1855,-1862,-1869,-1875,-1880,-1884,-1890,-1896,-1903,-1908,-1913,-1917,-1922,-1924,-1925,-1925,-1924,-1924,-1924,-1923,-1921,-1917,-1912,-1907,-1905,-1904,-1902,-1900,-1899,-1897,-1895,-1892,-1886,-1873,-1861,-1856,-1856,-1858,-1862,-1869,-1876,-1878,-1871,-1859,-1848,-1841,-1838,-1836,-1828,-1812,-1793,-1772,-1750,-1724,-1693,-1660,-1631,-1610,-1602,-1607,-1617,-1627,-1637,-1647,-1655,-1663,-1670,-1677,-1682,-1687,-1692,-1696,-1701,-1707,-1713,-1719,-1726,-1733,-1738,-1742,-1745,-1749,-1753,-1759,-1765,-1770,-1775,-1780,-1784,-1787,-1788,-1788,-1789,-1793,-1799,-1806,-1810,-1816,-1823,-1827,-1831,-1834,-1838,-1842,-1846,-1849,-1850,-1852,-1855,-1860,-1866,-1872
-150,-151,-152,-152,-153,-153,-153,-154,-154,-154,-154,-155,-155,-155,-155,-155,-155,-156,-156,-157,-158,-159,-160,-160,-161,-161,-161,-162,-163,-163,-164,-164,-164,-164,-165,-165,-166,-166,-166,-167,-167,-168,-168,-171,-173,-174,-174,-174,-174,-174,-173,-173,-174,-175,-176,-177,-179,-181,-183,-186,-187,-187,-185,-184,-184,-185,-186,-188,-191,-193,-194,-194,-193,-193,-192,-192,-193,-193,-194,-195,-196,-197,-197,-197,-198,-198,-198,-198,-197,-197,-197,-198,-199,-201,-205,-208,-209,-209,-209,-209,-209,-210,-211,-212,-213,-213,-214,-214,-214,-215,-215,-215,-216,-218,-218,-219,-220,-221,-221,-222,-223,-223,-224,-225,-226,-227,-227,-226,-226,-226,-227,-230,-232,-234,-235,-236,-236,-235,-235,-236,-237,-238,-238,-239,-239,-240,-240,-241,-241,-242,-243,-243,-244,-244,-245,-245,-245,-246,-248,-251,-255,-256,-255,-252,-250,-251,-252,-253,-254,-254,-254,-254,-255,-255,-257,-258,-258,-258,-258,-258,-259,-259,-260,-261,-262,-263,-264,-265,-266,-266,-266,-266,-266,-267,-268,-269,-269,-270,-271,-273,-274,-276,-277,-277,-278,-280,-282,-283,-284,-283,-284,-284,-285,-287,-288,-290,-290,-290,-289,-289,-289,-289,-289,-291,-292,-293,-296,-300,-305,-310,-313,-314,-313,-310,-307,-304,-303,-303,-305,-307,-310,-313,-317,-321,-324,-326,-327,-328,-328,-328,-327,-327,-327,-327,-327,-327,-328,-329,-329,-330,-331,-332,-333,-334,-335,-336,-337,-339,-340,-341,-342,-344,-345,-346,-347,-348,-349,-350,-352,-353,-354,-355,-356,-358,-361,-363,-366,-370,-373,-375,-376,-376,-376,-376,-376,-378,-380,-385,-390,-396,-400,-404,-407,-410,-414,-418,-422,-427,-431,-436,-440,-444,-447,-451,-455,-460,-466,-475,-486,-491,-480,-471,-493,-536,-572,-596,-617,-641,-668,-695,-725,-754,-778,-802,-821,-838,-854,-867,-881,-899,-919,-934,-947,-961,-981,-1004,-1032,-1059,-1088,-1117,-1146,-1171,-1194,-1215,-1231,-1241,-1245,-1243,-1232,-1216,-1203,-1202,-1208,-1207,-1189,-1159,-1132,-1115,-1116,-1135,-1172,-1213,-1247,-1249,-1222,-1189,-1165,-1145,-1122,-1104,-1095,-1106,-1126,-1151,-1177,-1201,-1210,-1203,-1190,-1175,-1172,-1186,-1209,-1231,-1254,-1274,-1287,-1291,-1290,-1291,-1296,-1305,-1313,-1318,-1315,-1304,-1295,-1299,-1315,-1330,-1342,-1347,-1348,-1343,-1334,-1319,-1306,-1300,-1302,-1310,-1323,-1342,-1372,-1406,-1436,-1465,-1493,-1520,-1543,-1565,-1589,-1616,-1648,-1675,-1695,-1708,-1722,-1738,-1757,-1779,-1803,-1827,-1845,-1860,-1871,-1879,-1885,-1890,-1895,-1900,-1906,-1912,-1917,-1921,-1925,-1927,-1930,-1934,-1937,-1940,-1942,-1942,-1941,-1939,-1936,-1934,-1934,-1933,-1931,-1929,-1929,-1927,-1923,-1918,-1914,-1909,-1905,-1904,-1908,-1910,-1912,-1913,-1913,-1912,-1910,-1906,-1901,-1894,-1885,-1870,-1851,-1830,-1809,-1789,-1768,-1744,-1714,-1683,-1653,-1629,-1616,-1617,-1626,-1636,-1645,-1654,-1661,-1669,-1676,-1684,-1691,-1698,-1704,-1708,-1712,-1716,-1721,-1725,-1730,-1734,-1738,-1743,-1748,-1753,-1758,-1762,-1766,-1771,-1776,-1781,-1784,-1786,-1787,-1788,-1789,-1789,-1791,-1794,-1798,-1801,-1805,-1809,-1813,-1818,-1823,-1828,-1832,-1837,-1841,-1844,-1848,-1854,-1862,-1867
-154,-154,-156,-157,-157,-157,-157,-157,-157,-158,-158,-158,-158,-158,-158,-158,-158,-159,-160,-160,-160,-161,-162,-162,-162,-162,-163,-164,-164,-165,-165,-165,-166,-166,-167,-167,-166,-167,-168,-168,-169,-170,-171,-172,-173,-174,-175,-176,-176,-177,-177,-177,-178,-180,-182,-184,-185,-187,-188,-189,-188,-187,-186,-186,-187,-186,-185,-185,-187,-190,-193,-194,-195,-196,-196,-196,-196,-197,-198,-200,-200,-199,-199,-200,-201,-200,-199,-198,-198,-199,-200,-201,-202,-204,-205,-207,-208,-210,-210,-211,-212,-213,-214,-215,-215,-216,-216,-217,-217,-217,-219,-220,-220,-220,-221,-222,-222,-222,-223,-224,-225,-225,-226,-227,-228,-228,-229,-229,-231,-232,-234,-235,-236,-237,-238,-238,-238,-238,-238,-239,-240,-240,-241,-241,-242,-242,-243,-243,-244,-245,-245,-246,-246,-247,-248,-250,-252,-254,-256,-257,-257,-257,-257,-256,-255,-256,-257,-259,-259,-259,-259,-259,-259,-259,-260,-261,-263,-263,-264,-264,-264,-265,-266,-267,-267,-267,-268,-269,-270,-271,-272,-272,-273,-274,-275,-275,-276,-276,-276,-276,-278,-280,-282,-284,-285,-287,-288,-288,-288,-288,-288,-289,-290,-291,-292,-293,-293,-292,-292,-292,-292,-293,-294,-295,-296,-298,-302,-307,-313,-317,-318,-316,-314,-311,-309,-307,-306,-307,-308,-310,-314,-318,-323,-327,-330,-332,-332,-332,-332,-331,-331,-330,-330,-329,-329,-329,-329,-329,-330,-331,-333,-334,-335,-336,-337,-339,-340,-341,-342,-343,-345,-346,-348,-349,-350,-352,-353,-353,-354,-355,-356,-357,-359,-360,-363,-367,-371,-375,-377,-378,-378,-377,-377,-378,-380,-383,-387,-392,-398,-402,-405,-407,-410,-413,-416,-420,-425,-429,-432,-436,-440,-444,-448,-450,-452,-456,-460,-464,-473,-485,-498,-499,-501,-524,-564,-603,-639,-679,-719,-747,-766,-795,-822,-839,-851,-870,-890,-908,-927,-945,-966,-988,-1007,-1026,-1046,-1065,-1084,-1104,-1125,-1148,-1170,-1191,-1213,-1233,-1250,-1269,-1286,-1301,-1310,-1315,-1318,-1319,-1316,-1303,-1284,-1261,-1242,-1232,-1230,-1234,-1249,-1284,-1324,-1348,-1341,-1314,-1284,-1258,-1231,-1207,-1193,-1195,-1212,-1236,-1267,-1296,-1310,-1301,-1278,-1252,-1231,-1225,-1236,-1260,-1289,-1319,-1346,-1367,-1377,-1378,-1376,-1373,-1379,-1388,-1390,-1381,-1373,-1376,-1383,-1391,-1397,-1401,-1401,-1394,-1381,-1363,-1347,-1335,-1325,-1319,-1320,-1331,-1353,-1382,-1410,-1436,-1458,-1477,-1494,-1512,-1530,-1550,-1575,-1601,-1626,-1646,-1668,-1692,-1717,-1744,-1771,-1796,-1819,-1842,-1859,-1869,-1877,-1885,-1894,-1901,-1908,-1915,-1921,-1925,-1929,-1933,-1936,-1940,-1944,-1948,-1950,-1951,-1953,-1956,-1957,-1958,-1958,-1959,-1958,-1956,-1954,-1954,-1954,-1954,-1951,-1947,-1943,-1940,-1938,-1936,-1937,-1940,-1943,-1943,-1942,-1938,-1932,-1921,-1902,-1877,-1851,-1828,-1804,-1780,-1755,-1725,-1692,-1660,-1635,-1617,-1611,-1614,-1622,-1631,-1641,-1650,-1659,-1667,-1675,-1682,-1690,-1698,-1706,-1714,-1722,-1729,-1734,-1738,-1742,-1745,-1749,-1753,-1758,-1762,-1766,-1771,-1775,-1779,-1782,-1787,-1792,-1797,-1801,-1803,-1804,-1804,-1805,-1808,-1810,-1810,-1810,-1812,-1815,-1819,-1823,-1828,-1832,-1837,-1842,-1847,-1852,-1856,-1862,-1868
-160,-160,-160,-160,-160,-160,-159,-159,-160,-160,-160,-161,-161,-161,-161,-161,-162,-162,-162,-163,-163,-163,-164,-164,-165,-165,-166,-166,-167,-167,-168,-168,-168,-169,-169,-169,-170,-170,-171,-172,-173,-174,-175,-175,-175,-176,-176,-178,-179,-180,-182,-184,-185,-185,-186,-187,-189,-191,-191,-190,-189,-189,-190,-190,-190,-189,-187,-186,-188,-190,-193,-195,-197,-198,-199,-199,-200,-201,-202,-203,-203,-203,-203,-205,-205,-206,-205,-205,-205,-205,-206,-206,-207,-208,-209,-210,-212,-213,-214,-215,-215,-216,-217,-217,-218,-218,-219,-220,-221,-222,-222,-222,-222,-223,-223,-223,-224,-225,-226,-227,-228,-229,-229,-230,-230,-230,-231,-232,-233,-234,-236,-238,-239,-239,-239,-240,-240,-241,-241,-242,-242,-243,-243,-244,-244,-245,-246,-246,-247,-248,-249,-250,-252,-253,-255,-258,-259,-258,-257,-257,-257,-258,-258,-259,-259,-259,-260,-261,-262,-263,-263,-264,-264,-264,-264,-264,-266,-268,-269,-270,-271,-271,-272,-272,-273,-273,-274,-275,-276,-276,-276,-277,-278,-279,-280,-281,-281,-282,-283,-284,-285,-286,-288,-289,-290,-291,-291,-291,-292,-294,-296,-297,-298,-298,-298,-298,-298,-297,-297,-297,-297,-297,-298,-300,-301,-303,-308,-316,-324,-327,-325,-322,-318,-315,-313,-311,-311,-311,-313,-315,-318,-322,-327,-332,-335,-336,-336,-336,-335,-335,-334,-333,-332,-332,-331,-330,-329,-329,-330,-332,-334,-337,-338,-340,-341,-342,-343,-344,-345,-346,-347,-349,-351,-353,-355,-357,-358,-360,-360,-361,-362,-362,-363,-364,-366,-369,-373,-376,-378,-379,-379,-380,-381,-383,-385,-388,-392,-396,-401,-404,-406,-408,-410,-412,-416,-421,-425,-429,-433,-435,-438,-440,-442,-445,-449,-454,-458,-463,-468,-477,-487,-491,-494,-521,-566,-608,-640,-679,-716,-748,-780,-806,-824,-842,-862,-885,-905,-922,-940,-959,-982,-1007,-1032,-1055,-1076,-1097,-1115,-1129,-1142,-1157,-1171,-1188,-1204,-1220,-1236,-1256,-1280,-1302,-1323,-1344,-1362,-1375,-1384,-1388,-1387,-1385,-1380,-1377,-1371,-1362,-1354,-1365,-1390,-1412,-1421,-1413,-1390,-1360,-1336,-1315,-1303,-1303,-1314,-1331,-1352,-1375,-1381,-1365,-1341,-1323,-1314,-1312,-1314,-1316,-1324,-1342,-1370,-1397,-1422,-1442,-1452,-1450,-1442,-1441,-1443,-1442,-1437,-1437,-1443,-1451,-1453,-1450,-1443,-1433,-1421,-1409,-1402,-1397,-1391,-1381,-1374,-1374,-1381,-1392,-1406,-1418,-1427,-1443,-1474,-1511,-1549,-1582,-1611,-1634,-1657,-1678,-1699,-1715,-1732,-1750,-1768,-1784,-1799,-1813,-1827,-1839,-1852,-1865,-1878,-1891,-1902,-1911,-1918,-1925,-1930,-1935,-1939,-1943,-1946,-1949,-1953,-1955,-1958,-1961,-1964,-1968,-1971,-1974,-1977,-1979,-1979,-1978,-1978,-1977,-1977,-1975,-1974,-1973,-1972,-1972,-1972,-1972,-1971,-1968,-1964,-1959,-1953,-1942,-1921,-1891,-1860,-1833,-1802,-1771,-1746,-1721,-1694,-1668,-1647,-1632,-1626,-1624,-1624,-1627,-1633,-1641,-1649,-1658,-1667,-1676,-1685,-1695,-1704,-1713,-1721,-1730,-1739,-1747,-1754,-1758,-1762,-1766,-1769,-1774,-1778,-1782,-1786,-1789,-1792,-1795,-1799,-1803,-1808,-1813,-1818,-1822,-1823,-1824,-1825,-1827,-1829,-1830,-1830,-1830,-1832,-1835,-1838,-1841,-1843,-1846,-1849,-1852,-1856,-1860
-163,-164,-164,-164,-165,-165,-165,-164,-163,-162,-161,-162,-163,-163,-163,-164,-164,-164,-165,-165,-166,-166,-167,-168,-169,-170,-170,-170,-171,-171,-172,-172,-173,-173,-174,-174,-174,-175,-175,-176,-176,-177,-177,-177,-178,-178,-179,-181,-182,-184,-185,-187,-189,-189,-190,-191,-191,-192,-192,-192,-192,-192,-193,-193,-192,-192,-192,-193,-195,-197,-199,-200,-200,-201,-201,-202,-202,-204,-205,-204,-203,-204,-206,-208,-209,-210,-211,-211,-210,-210,-210,-211,-212,-213,-214,-215,-216,-217,-218,-219,-219,-220,-221,-222,-223,-224,-225,-226,-228,-230,-231,-231,-229,-228,-228,-228,-228,-228,-229,-230,-231,-232,-233,-234,-234,-235,-235,-236,-236,-237,-238,-239,-240,-241,-243,-243,-243,-244,-245,-245,-246,-246,-247,-248,-248,-249,-249,-250,-251,-252,-253,-255,-258,-260,-260,-259,-259,-259,-259,-260,-260,-260,-259,-259,-259,-261,-263,-264,-265,-265,-267,-269,-270,-271,-270,-270,-270,-271,-272,-274,-275,-276,-276,-277,-278,-279,-279,-280,-282,-283,-284,-285,-285,-285,-286,-286,-288,-289,-291,-292,-293,-293,-294,-294,-295,-295,-295,-295,-295,-297,-300,-304,-305,-304,-303,-303,-302,-301,-301,-302,-302,-303,-304,-304,-306,-309,-314,-320,-326,-329,-328,-324,-321,-318,-316,-315,-315,-317,-319,-322,-326,-330,-335,-340,-342,-342,-341,-340,-339,-338,-338,-337,-337,-337,-337,-336,-334,-333,-333,-333,-335,-337,-340,-342,-343,-345,-347,-348,-350,-351,-352,-353,-355,-357,-359,-362,-365,-367,-369,-369,-368,-368,-368,-368,-370,-373,-377,-381,-384,-384,-384,-385,-386,-386,-388,-390,-392,-396,-400,-404,-406,-408,-410,-412,-416,-421,-425,-429,-431,-434,-436,-439,-441,-443,-447,-451,-455,-458,-460,-461,-463,-469,-485,-517,-563,-608,-645,-683,-722,-750,-766,-771,-772,-781,-799,-823,-846,-867,-887,-910,-944,-980,-1010,-1031,-1046,-1058,-1067,-1078,-1090,-1104,-1118,-1132,-1149,-1170,-1194,-1219,-1244,-1270,-1295,-1317,-1339,-1362,-1383,-1400,-1412,-1420,-1427,-1434,-1439,-1443,-1446,-1450,-1457,-1463,-1467,-1467,-1463,-1452,-1435,-1419,-1407,-1410,-1424,-1445,-1461,-1468,-1456,-1433,-1415,-1408,-1413,-1422,-1430,-1429,-1424,-1423,-1435,-1451,-1465,-1480,-1499,-1517,-1521,-1513,-1505,-1504,-1503,-1499,-1497,-1498,-1499,-1498,-1494,-1486,-1479,-1475,-1474,-1472,-1466,-1460,-1457,-1456,-1453,-1452,-1454,-1458,-1463,-1468,-1482,-1506,-1538,-1575,-1606,-1628,-1642,-1656,-1670,-1681,-1693,-1704,-1717,-1730,-1748,-1767,-1784,-1799,-1814,-1828,-1842,-1859,-1875,-1889,-1901,-1911,-1920,-1929,-1937,-1941,-1944,-1951,-1958,-1962,-1964,-1968,-1971,-1974,-1978,-1982,-1987,-1991,-1994,-1996,-1997,-1998,-1997,-1996,-1994,-1994,-1994,-1995,-1996,-1996,-1995,-1994,-1991,-1987,-1984,-1980,-1969,-1947,-1919,-1890,-1859,-1827,-1799,-1774,-1754,-1737,-1726,-1723,-1722,-1712,-1690,-1665,-1648,-1641,-1642,-1652,-1665,-1677,-1688,-1698,-1709,-1718,-1726,-1733,-1740,-1748,-1755,-1761,-1766,-1771,-1776,-1780,-1785,-1789,-1793,-1797,-1802,-1805,-1808,-1811,-1815,-1818,-1823,-1829,-1835,-1840,-1843,-1846,-1848,-1850,-1853,-1854,-1855,-1854,-1854,-1856,-1858,-1859,-1859,-1860,-1860,-1861
-165,-165,-165,-166,-166,-167,-167,-167,-167,-167,-167,-166,-166,-167,-167,-167,-167,-167,-168,-169,-169,-170,-171,-172,-173,-174,-175,-175,-176,-177,-178,-178,-179,-179,-179,-179,-179,-179,-179,-179,-180,-182,-183,-184,-184,-185,-185,-186,-188,-189,-190,-192,-193,-193,-193,-194,-194,-194,-194,-194,-196,-197,-197,-198,-198,-199,-199,-200,-201,-203,-203,-204,-204,-204,-206,-207,-208,-209,-209,-209,-209,-209,-210,-212,-213,-215,-216,-216,-216,-216,-215,-216,-216,-217,-218,-219,-220,-221,-222,-222,-223,-224,-225,-226,-227,-228,-229,-231,-232,-233,-233,-233,-233,-233,-232,-232,-232,-232,-232,-232,-233,-235,-237,-239,-240,-241,-240,-240,-241,-242,-242,-243,-244,-244,-244,-245,-246,-246,-247,-248,-248,-249,-250,-251,-252,-253,-254,-255,-255,-257,-259,-259,-259,-259,-259,-259,-260,-261,-262,-263,-264,-265,-266,-264,-264,-265,-268,-270,-271,-271,-271,-272,-273,-274,-274,-274,-274,-275,-276,-278,-279,-279,-280,-281,-281,-281,-282,-282,-283,-286,-288,-290,-292,-292,-292,-292,-293,-293,-295,-296,-297,-298,-299,-300,-301,-301,-302,-302,-302,-302,-303,-305,-307,-308,-309,-309,-308,-307,-307,-307,-308,-309,-310,-310,-312,-315,-320,-326,-331,-332,-331,-328,-325,-323,-321,-321,-322,-324,-326,-329,-333,-338,-342,-344,-345,-345,-343,-341,-340,-340,-341,-342,-342,-343,-344,-344,-344,-343,-343,-343,-344,-345,-346,-349,-351,-352,-353,-354,-354,-355,-356,-357,-358,-360,-364,-367,-370,-372,-372,-372,-371,-370,-371,-373,-377,-380,-383,-386,-388,-389,-390,-390,-390,-390,-392,-395,-397,-399,-402,-405,-408,-410,-413,-416,-420,-425,-429,-431,-432,-434,-436,-438,-440,-443,-445,-448,-450,-451,-450,-449,-447,-449,-468,-506,-553,-590,-615,-635,-655,-673,-685,-692,-700,-720,-755,-801,-840,-870,-894,-916,-930,-937,-939,-948,-962,-981,-997,-1018,-1043,-1069,-1094,-1114,-1131,-1144,-1156,-1165,-1174,-1188,-1206,-1227,-1254,-1286,-1321,-1351,-1383,-1411,-1431,-1444,-1454,-1462,-1469,-1477,-1485,-1494,-1499,-1504,-1509,-1515,-1517,-1514,-1509,-1507,-1512,-1523,-1531,-1526,-1512,-1495,-1483,-1480,-1487,-1502,-1519,-1528,-1525,-1516,-1508,-1511,-1522,-1536,-1549,-1564,-1578,-1577,-1561,-1544,-1535,-1532,-1531,-1530,-1530,-1530,-1529,-1526,-1522,-1519,-1516,-1512,-1510,-1511,-1518,-1524,-1524,-1518,-1513,-1510,-1513,-1521,-1529,-1534,-1543,-1568,-1595,-1616,-1632,-1645,-1658,-1670,-1681,-1692,-1702,-1711,-1722,-1734,-1746,-1761,-1776,-1792,-1809,-1825,-1841,-1858,-1876,-1891,-1901,-1910,-1920,-1928,-1933,-1939,-1948,-1956,-1960,-1966,-1971,-1977,-1981,-1986,-1992,-1997,-2001,-2004,-2007,-2010,-2012,-2013,-2014,-2013,-2013,-2014,-2016,-2018,-2018,-2018,-2018,-2018,-2017,-2014,-2011,-2004,-1992,-1972,-1946,-1917,-1885,-1854,-1831,-1819,-1812,-1806,-1796,-1779,-1757,-1734,-1712,-1686,-1662,-1649,-1651,-1663,-1677,-1690,-1702,-1714,-1723,-1730,-1737,-1743,-1748,-1754,-1761,-1768,-1773,-1779,-1785,-1790,-1796,-1802,-1808,-1814,-1819,-1824,-1828,-1831,-1833,-1837,-1842,-1848,-1855,-1859,-1862,-1865,-1867,-1868,-1870,-1873,-1875,-1876,-1874,-1873,-1878,-1886,-1889,-1890
-167,-167,-166,-166,-167,-167,-167,-168,-169,-169,-170,-170,-171,-172,-172,-173,-173,-173,-174,-174,-175,-176,-177,-178,-179,-179,-180,-181,-182,-184,-185,-185,-186,-186,-186,-186,-185,-184,-183,-184,-185,-186,-187,-188,-190,-192,-193,-193,-194,-194,-195,-196,-196,-197,-198,-197,-197,-197,-198,-199,-200,-202,-203,-203,-203,-204,-205,-205,-207,-208,-208,-209,-209,-210,-211,-212,-212,-212,-213,-214,-214,-215,-215,-215,-216,-216,-217,-217,-218,-219,-220,-220,-221,-222,-222,-223,-224,-225,-226,-226,-227,-228,-229,-230,-231,-232,-233,-234,-235,-235,-235,-234,-234,-235,-237,-239,-240,-238,-237,-237,-237,-238,-239,-240,-241,-242,-243,-245,-245,-246,-246,-247,-247,-248,-248,-248,-249,-250,-251,-252,-254,-255,-256,-257,-257,-256,-256,-257,-259,-260,-260,-260,-261,-261,-261,-262,-263,-265,-268,-270,-271,-271,-270,-269,-268,-269,-269,-271,-272,-273,-273,-275,-277,-279,-280,-281,-280,-280,-281,-283,-284,-284,-284,-282,-281,-281,-281,-282,-285,-290,-294,-299,-301,-301,-300,-300,-300,-300,-300,-301,-302,-302,-303,-304,-305,-305,-306,-307,-307,-309,-311,-313,-315,-317,-318,-318,-317,-316,-316,-316,-317,-318,-319,-321,-323,-326,-331,-337,-340,-341,-338,-335,-332,-330,-329,-328,-329,-331,-334,-337,-342,-345,-346,-345,-344,-342,-341,-340,-340,-342,-344,-347,-349,-350,-351,-351,-352,-352,-352,-353,-355,-356,-357,-358,-360,-361,-362,-362,-362,-362,-362,-362,-363,-364,-366,-369,-371,-373,-373,-373,-373,-373,-374,-375,-377,-382,-385,-389,-391,-392,-392,-393,-395,-395,-396,-397,-399,-401,-404,-407,-409,-412,-415,-419,-422,-425,-428,-430,-433,-435,-437,-439,-441,-444,-447,-451,-454,-456,-460,-466,-472,-479,-494,-519,-545,-572,-598,-619,-637,-657,-678,-696,-715,-740,-768,-798,-824,-836,-835,-833,-830,-826,-827,-845,-877,-913,-948,-980,-1005,-1021,-1031,-1039,-1048,-1060,-1075,-1092,-1117,-1143,-1172,-1202,-1237,-1273,-1306,-1333,-1357,-1379,-1399,-1416,-1433,-1448,-1463,-1480,-1496,-1507,-1517,-1524,-1532,-1541,-1551,-1560,-1566,-1570,-1573,-1574,-1575,-1574,-1571,-1570,-1568,-1567,-1568,-1573,-1578,-1582,-1584,-1582,-1576,-1570,-1570,-1576,-1585,-1596,-1609,-1610,-1596,-1576,-1563,-1559,-1560,-1561,-1562,-1563,-1562,-1561,-1559,-1558,-1557,-1559,-1566,-1572,-1575,-1575,-1577,-1580,-1586,-1592,-1595,-1599,-1602,-1600,-1589,-1581,-1586,-1605,-1624,-1639,-1650,-1663,-1676,-1688,-1699,-1709,-1718,-1727,-1737,-1748,-1760,-1773,-1789,-1804,-1818,-1833,-1849,-1866,-1883,-1900,-1913,-1922,-1927,-1933,-1939,-1946,-1955,-1963,-1971,-1978,-1984,-1989,-1994,-1999,-2006,-2011,-2016,-2021,-2025,-2028,-2031,-2032,-2034,-2037,-2040,-2043,-2044,-2044,-2043,-2042,-2042,-2041,-2040,-2038,-2034,-2026,-2015,-2000,-1978,-1951,-1924,-1900,-1878,-1860,-1843,-1825,-1806,-1788,-1767,-1742,-1716,-1691,-1667,-1650,-1650,-1665,-1684,-1701,-1712,-1719,-1725,-1731,-1736,-1744,-1754,-1763,-1771,-1779,-1785,-1792,-1799,-1806,-1813,-1819,-1824,-1831,-1836,-1840,-1844,-1847,-1851,-1855,-1860,-1865,-1871,-1876,-1881,-1884,-1887,-1889,-1891,-1893,-1895,-1896,-1901,-1909,-1915,-1919
-169,-169,-168,-168,-168,-168,-168,-171,-175,-174,-173,-172,-173,-174,-175,-175,-176,-177,-177,-179,-180,-182,-182,-183,-183,-184,-185,-187,-188,-190,-191,-192,-191,-190,-188,-187,-186,-187,-187,-187,-187,-188,-190,-191,-193,-194,-196,-197,-198,-198,-198,-198,-199,-199,-199,-199,-200,-201,-202,-202,-203,-205,-207,-208,-208,-209,-209,-210,-210,-211,-211,-212,-213,-214,-215,-215,-214,-214,-215,-217,-218,-219,-220,-220,-220,-221,-221,-222,-222,-223,-224,-224,-225,-226,-227,-227,-228,-229,-230,-231,-231,-232,-233,-234,-235,-235,-236,-236,-236,-237,-237,-237,-237,-239,-243,-247,-249,-248,-247,-246,-246,-246,-245,-245,-245,-246,-247,-248,-248,-248,-249,-250,-252,-253,-253,-253,-254,-254,-255,-256,-258,-259,-260,-261,-262,-261,-261,-260,-261,-262,-263,-263,-263,-264,-265,-268,-271,-275,-278,-279,-279,-277,-275,-272,-271,-271,-272,-273,-274,-275,-276,-278,-280,-281,-283,-284,-286,-287,-288,-289,-288,-287,-286,-286,-286,-286,-287,-288,-291,-295,-299,-305,-309,-310,-308,-307,-308,-308,-308,-309,-310,-311,-312,-313,-314,-315,-314,-314,-314,-316,-318,-321,-323,-326,-327,-326,-325,-325,-325,-326,-326,-328,-329,-331,-333,-336,-342,-348,-351,-350,-346,-343,-340,-339,-339,-340,-341,-344,-347,-351,-355,-358,-357,-355,-354,-355,-355,-354,-353,-354,-355,-357,-359,-361,-363,-363,-364,-364,-364,-364,-365,-365,-367,-368,-370,-371,-371,-372,-372,-371,-371,-371,-371,-372,-373,-375,-377,-378,-379,-379,-380,-380,-380,-380,-382,-384,-387,-390,-392,-393,-393,-394,-394,-394,-395,-398,-401,-403,-405,-408,-410,-413,-416,-419,-422,-424,-427,-430,-433,-435,-437,-439,-442,-444,-447,-450,-453,-455,-458,-466,-478,-492,-509,-530,-548,-560,-570,-580,-595,-614,-631,-643,-655,-672,-688,-697,-700,-702,-704,-713,-735,-764,-798,-834,-866,-889,-900,-905,-910,-922,-941,-967,-1000,-1037,-1076,-1109,-1140,-1161,-1174,-1183,-1196,-1214,-1233,-1256,-1280,-1302,-1322,-1340,-1359,-1380,-1406,-1436,-1466,-1494,-1517,-1536,-1549,-1559,-1568,-1575,-1582,-1587,-1591,-1595,-1599,-1604,-1610,-1615,-1619,-1623,-1624,-1624,-1623,-1621,-1619,-1617,-1616,-1614,-1613,-1615,-1620,-1628,-1637,-1640,-1630,-1613,-1599,-1592,-1592,-1594,-1597,-1599,-1600,-1600,-1600,-1600,-1600,-1600,-1603,-1606,-1607,-1609,-1615,-1628,-1643,-1654,-1657,-1657,-1657,-1653,-1645,-1633,-1621,-1610,-1605,-1609,-1622,-1637,-1650,-1660,-1668,-1677,-1687,-1697,-1711,-1727,-1743,-1757,-1774,-1793,-1811,-1826,-1840,-1850,-1862,-1878,-1895,-1912,-1924,-1932,-1941,-1949,-1957,-1964,-1972,-1981,-1988,-1994,-2000,-2007,-2013,-2020,-2026,-2032,-2038,-2043,-2046,-2050,-2052,-2055,-2057,-2059,-2061,-2062,-2064,-2065,-2065,-2065,-2064,-2063,-2064,-2065,-2063,-2057,-2048,-2034,-2012,-1983,-1949,-1915,-1885,-1856,-1829,-1808,-1789,-1772,-1754,-1731,-1704,-1677,-1653,-1643,-1651,-1670,-1689,-1702,-1710,-1718,-1728,-1739,-1750,-1759,-1767,-1776,-1784,-1791,-1797,-1804,-1810,-1816,-1822,-1829,-1835,-1841,-1847,-1852,-1857,-1862,-1867,-1872,-1877,-1883,-1889,-1896,-1901,-1905,-1907,-1910,-1912,-1913,-1915,-1921,-1928,-1934
-171,-172,-172,-172,-172,-172,-173,-173,-174,-173,-172,-172,-174,-176,-177,-178,-179,-179,-180,-181,-182,-183,-184,-184,-185,-186,-188,-190,-192,-194,-195,-194,-192,-191,-189,-188,-189,-190,-191,-192,-192,-193,-194,-195,-197,-199,-206,-214,-218,-214,-207,-203,-202,-202,-202,-202,-204,-205,-207,-209,-209,-210,-211,-211,-212,-213,-213,-214,-215,-215,-215,-216,-218,-219,-219,-218,-217,-218,-220,-222,-223,-224,-225,-225,-226,-226,-227,-227,-228,-228,-229,-229,-230,-231,-232,-232,-233,-234,-235,-235,-236,-236,-237,-237,-238,-238,-238,-239,-239,-240,-241,-242,-244,-245,-247,-250,-252,-252,-251,-251,-251,-251,-251,-252,-252,-253,-254,-255,-255,-255,-255,-256,-257,-258,-258,-258,-259,-259,-260,-261,-262,-263,-263,-263,-263,-264,-264,-265,-265,-266,-266,-266,-268,-269,-271,-274,-277,-279,-279,-277,-277,-276,-276,-275,-276,-277,-278,-279,-280,-281,-282,-283,-284,-286,-286,-287,-289,-290,-292,-294,-294,-294,-293,-294,-294,-295,-295,-296,-298,-301,-304,-306,-307,-308,-309,-310,-310,-311,-312,-313,-315,-318,-320,-322,-323,-324,-324,-324,-323,-324,-326,-329,-332,-334,-335,-335,-334,-334,-334,-335,-337,-338,-341,-342,-344,-346,-351,-358,-360,-358,-355,-353,-352,-352,-353,-355,-357,-360,-364,-368,-372,-374,-373,-372,-372,-373,-374,-375,-375,-374,-373,-374,-376,-376,-377,-377,-377,-377,-377,-377,-377,-378,-379,-381,-382,-383,-384,-384,-385,-385,-387,-391,-397,-402,-403,-398,-394,-392,-390,-388,-388,-389,-389,-390,-391,-393,-396,-397,-398,-398,-398,-398,-398,-398,-399,-402,-406,-409,-413,-417,-421,-423,-423,-425,-427,-429,-431,-433,-435,-437,-439,-442,-444,-447,-449,-450,-451,-452,-454,-458,-464,-472,-481,-495,-511,-524,-532,-537,-542,-547,-552,-558,-564,-570,-579,-587,-599,-616,-644,-676,-709,-743,-771,-791,-797,-797,-796,-806,-828,-860,-894,-926,-958,-984,-1005,-1025,-1046,-1064,-1079,-1095,-1119,-1145,-1174,-1202,-1228,-1249,-1272,-1295,-1317,-1341,-1364,-1389,-1413,-1442,-1472,-1500,-1526,-1548,-1564,-1574,-1582,-1589,-1596,-1604,-1611,-1617,-1624,-1631,-1638,-1643,-1647,-1649,-1650,-1651,-1651,-1650,-1650,-1650,-1650,-1651,-1654,-1660,-1666,-1667,-1662,-1653,-1645,-1639,-1637,-1636,-1635,-1634,-1633,-1631,-1631,-1633,-1636,-1642,-1648,-1649,-1649,-1654,-1665,-1677,-1688,-1698,-1706,-1711,-1716,-1719,-1715,-1703,-1683,-1657,-1629,-1606,-1591,-1587,-1595,-1609,-1626,-1644,-1664,-1687,-1710,-1729,-1748,-1767,-1785,-1802,-1817,-1830,-1840,-1850,-1861,-1873,-1886,-1903,-1920,-1934,-1944,-1953,-1961,-1966,-1972,-1979,-1988,-1996,-2003,-2011,-2018,-2024,-2031,-2036,-2042,-2048,-2053,-2058,-2064,-2068,-2072,-2075,-2077,-2079,-2082,-2085,-2086,-2086,-2086,-2086,-2086,-2087,-2090,-2092,-2091,-2086,-2071,-2042,-2008,-1975,-1936,-1897,-1862,-1831,-1802,-1776,-1755,-1734,-1714,-1699,-1695,-1698,-1707,-1713,-1713,-1718,-1727,-1735,-1735,-1734,-1735,-1742,-1752,-1762,-1772,-1782,-1789,-1796,-1801,-1808,-1815,-1822,-1829,-1835,-1842,-1848,-1854,-1861,-1867,-1873,-1879,-1885,-1891,-1898,-1905,-1911,-1917,-1923,-1927,-1931,-1934,-1937,-1942,-1948
-174,-174,-175,-175,-175,-176,-176,-176,-176,-176,-175,-175,-175,-175,-176,-178,-179,-181,-182,-183,-185,-186,-187,-188,-189,-189,-191,-192,-193,-195,-195,-194,-193,-192,-192,-193,-194,-194,-195,-196,-197,-198,-200,-202,-204,-206,-207,-208,-209,-209,-209,-209,-209,-209,-209,-209,-210,-211,-212,-212,-212,-213,-213,-214,-215,-217,-218,-219,-219,-220,-221,-222,-223,-223,-223,-223,-223,-224,-225,-227,-228,-229,-230,-231,-231,-232,-232,-232,-233,-233,-234,-235,-236,-237,-238,-239,-239,-239,-239,-239,-239,-239,-240,-240,-241,-242,-243,-243,-244,-245,-247,-248,-250,-252,-253,-253,-254,-254,-254,-254,-255,-256,-256,-257,-257,-258,-259,-259,-259,-260,-261,-262,-263,-264,-264,-264,-264,-265,-266,-266,-266,-266,-266,-266,-266,-266,-267,-268,-269,-270,-271,-272,-274,-275,-276,-276,-277,-277,-277,-276,-276,-277,-278,-279,-280,-281,-282,-283,-284,-285,-286,-287,-287,-288,-289,-290,-292,-293,-294,-296,-298,-299,-299,-299,-299,-298,-299,-299,-301,-303,-306,-309,-311,-312,-313,-314,-315,-316,-318,-319,-320,-321,-324,-326,-328,-329,-330,-331,-331,-331,-333,-336,-339,-342,-343,-343,-343,-344,-345,-346,-347,-347,-348,-349,-351,-355,-360,-365,-367,-366,-363,-362,-362,-364,-365,-368,-371,-374,-377,-380,-383,-383,-383,-382,-383,-384,-386,-387,-390,-393,-395,-394,-394,-395,-395,-395,-396,-397,-397,-397,-398,-398,-398,-398,-399,-399,-400,-402,-406,-410,-415,-419,-425,-432,-434,-424,-410,-404,-403,-403,-404,-404,-404,-404,-405,-407,-407,-407,-405,-404,-404,-405,-406,-407,-409,-411,-414,-417,-423,-433,-443,-445,-442,-439,-438,-437,-437,-437,-438,-439,-440,-442,-443,-445,-447,-448,-449,-451,-453,-454,-455,-451,-445,-445,-457,-473,-483,-487,-490,-493,-500,-508,-518,-527,-535,-543,-551,-565,-585,-606,-625,-647,-666,-683,-698,-714,-731,-755,-783,-812,-838,-865,-892,-919,-949,-983,-1019,-1049,-1080,-1113,-1151,-1186,-1220,-1250,-1277,-1301,-1324,-1346,-1369,-1391,-1412,-1432,-1452,-1471,-1484,-1494,-1504,-1517,-1527,-1536,-1545,-1559,-1576,-1594,-1612,-1625,-1635,-1643,-1650,-1656,-1661,-1664,-1666,-1668,-1670,-1673,-1675,-1677,-1680,-1682,-1683,-1684,-1685,-1687,-1687,-1687,-1686,-1686,-1686,-1686,-1683,-1679,-1677,-1678,-1678,-1680,-1684,-1687,-1690,-1692,-1695,-1702,-1711,-1720,-1729,-1736,-1741,-1746,-1751,-1756,-1755,-1748,-1732,-1710,-1687,-1666,-1647,-1631,-1625,-1623,-1629,-1647,-1674,-1704,-1731,-1749,-1761,-1770,-1778,-1785,-1793,-1802,-1811,-1821,-1834,-1849,-1865,-1885,-1906,-1925,-1942,-1955,-1964,-1970,-1975,-1982,-1989,-1996,-2003,-2009,-2015,-2023,-2030,-2036,-2042,-2048,-2054,-2060,-2066,-2072,-2077,-2083,-2088,-2093,-2096,-2100,-2104,-2106,-2108,-2107,-2107,-2107,-2109,-2113,-2116,-2117,-2111,-2097,-2071,-2032,-1987,-1942,-1905,-1873,-1846,-1819,-1796,-1776,-1765,-1768,-1789,-1820,-1844,-1849,-1835,-1825,-1830,-1840,-1838,-1823,-1805,-1790,-1783,-1778,-1777,-1778,-1779,-1783,-1788,-1795,-1803,-1809,-1816,-1824,-1830,-1836,-1842,-1848,-1854,-1862,-1870,-1877,-1884,-1892,-1899,-1907,-1915,-1925,-1934,-1942,-1949,-1953,-1955,-1958
-175,-175,-175,-176,-177,-178,-179,-180,-180,-181,-182,-183,-185,-187,-189,-190,-187,-183,-184,-186,-188,-190,-191,-192,-193,-194,-196,-198,-198,-198,-198,-198,-199,-198,-198,-199,-199,-200,-201,-202,-203,-205,-207,-209,-211,-213,-214,-214,-214,-214,-213,-214,-214,-215,-215,-215,-215,-215,-215,-215,-215,-214,-215,-219,-221,-222,-222,-222,-222,-223,-225,-226,-226,-226,-227,-228,-229,-231,-231,-232,-233,-233,-234,-235,-235,-236,-236,-237,-237,-238,-239,-240,-240,-241,-242,-243,-244,-244,-243,-242,-242,-243,-243,-244,-246,-247,-248,-250,-251,-251,-253,-254,-254,-255,-255,-256,-257,-258,-259,-259,-260,-260,-260,-260,-261,-261,-262,-262,-263,-264,-265,-266,-267,-268,-268,-268,-268,-268,-269,-269,-270,-270,-271,-271,-271,-271,-271,-272,-272,-273,-274,-275,-277,-278,-279,-280,-281,-282,-282,-282,-282,-282,-283,-284,-285,-286,-286,-287,-288,-288,-288,-288,-288,-288,-288,-290,-295,-298,-299,-300,-300,-302,-303,-304,-305,-306,-306,-307,-307,-308,-309,-311,-313,-314,-316,-316,-317,-318,-320,-323,-325,-326,-328,-329,-331,-333,-336,-338,-339,-340,-341,-343,-346,-348,-349,-349,-349,-349,-350,-351,-353,-354,-356,-358,-362,-367,-374,-379,-380,-378,-377,-377,-377,-378,-381,-383,-387,-390,-393,-395,-395,-394,-395,-398,-402,-405,-407,-408,-409,-411,-414,-417,-418,-419,-419,-418,-417,-418,-418,-418,-419,-420,-423,-427,-433,-439,-442,-444,-443,-443,-443,-441,-435,-429,-426,-424,-422,-420,-420,-421,-422,-422,-422,-421,-421,-421,-420,-418,-415,-413,-413,-413,-414,-415,-416,-418,-422,-426,-429,-433,-437,-439,-440,-439,-439,-439,-440,-440,-441,-440,-440,-440,-441,-442,-443,-444,-446,-448,-451,-453,-455,-455,-451,-445,-445,-451,-457,-461,-463,-466,-471,-477,-483,-491,-499,-508,-518,-530,-542,-550,-559,-572,-592,-619,-653,-688,-717,-751,-789,-828,-866,-908,-952,-988,-1020,-1048,-1074,-1095,-1117,-1137,-1158,-1180,-1203,-1224,-1245,-1266,-1284,-1298,-1313,-1329,-1344,-1362,-1383,-1405,-1413,-1413,-1416,-1429,-1445,-1466,-1489,-1514,-1542,-1570,-1596,-1615,-1630,-1640,-1647,-1655,-1662,-1669,-1676,-1682,-1686,-1690,-1693,-1695,-1697,-1700,-1703,-1706,-1707,-1709,-1711,-1714,-1718,-1721,-1723,-1725,-1728,-1730,-1731,-1733,-1736,-1738,-1740,-1742,-1744,-1747,-1750,-1753,-1756,-1760,-1764,-1767,-1770,-1772,-1777,-1782,-1787,-1787,-1781,-1769,-1755,-1740,-1729,-1724,-1721,-1712,-1696,-1683,-1684,-1696,-1711,-1722,-1730,-1736,-1742,-1749,-1759,-1770,-1783,-1798,-1812,-1825,-1842,-1863,-1885,-1905,-1923,-1939,-1951,-1961,-1970,-1978,-1984,-1990,-1996,-2001,-2005,-2010,-2018,-2026,-2034,-2041,-2048,-2056,-2064,-2071,-2077,-2083,-2090,-2097,-2104,-2109,-2114,-2119,-2123,-2127,-2130,-2133,-2136,-2139,-2141,-2143,-2141,-2136,-2127,-2106,-2073,-2034,-1995,-1957,-1927,-1905,-1888,-1879,-1880,-1886,-1893,-1913,-1934,-1940,-1934,-1931,-1940,-1949,-1949,-1940,-1931,-1924,-1917,-1907,-1888,-1866,-1838,-1814,-1795,-1785,-1787,-1794,-1800,-1806,-1812,-1818,-1825,-1832,-1840,-1850,-1859,-1868,-1878,-1886,-1894,-1901,-1910,-1918,-1926,-1935,-1944,-1953,-1961,-1968
-178,-178,-178,-179,-180,-181,-182,-183,-185,-186,-187,-189,-191,-193,-195,-195,-194,-191,-189,-189,-190,-190,-192,-193,-195,-197,-201,-203,-203,-202,-202,-202,-203,-203,-203,-204,-205,-205,-206,-208,-210,-212,-213,-214,-214,-215,-215,-215,-216,-216,-216,-217,-217,-217,-217,-216,-215,-216,-216,-216,-216,-217,-219,-222,-224,-225,-225,-225,-226,-228,-230,-230,-230,-231,-231,-233,-235,-236,-237,-238,-238,-239,-239,-239,-239,-240,-240,-240,-241,-242,-243,-244,-245,-246,-245,-244,-244,-244,-245,-246,-247,-248,-249,-250,-252,-253,-254,-255,-256,-256,-256,-256,-257,-258,-260,-261,-262,-263,-263,-263,-263,-263,-264,-265,-266,-266,-267,-266,-266,-266,-268,-269,-269,-270,-270,-271,-271,-272,-272,-273,-274,-275,-276,-277,-277,-277,-277,-278,-278,-279,-279,-279,-280,-281,-283,-285,-287,-289,-289,-287,-286,-287,-288,-289,-289,-289,-289,-289,-290,-290,-290,-290,-290,-290,-289,-289,-291,-294,-299,-302,-303,-303,-305,-307,-308,-309,-310,-312,-312,-313,-313,-314,-314,-316,-318,-321,-323,-325,-327,-329,-330,-331,-333,-335,-336,-339,-342,-345,-348,-349,-350,-351,-354,-355,-355,-354,-354,-355,-357,-359,-361,-364,-368,-372,-378,-385,-389,-390,-389,-388,-388,-389,-389,-391,-393,-396,-399,-403,-407,-411,-413,-412,-409,-411,-414,-417,-419,-421,-423,-426,-428,-430,-431,-433,-435,-438,-442,-446,-449,-451,-455,-464,-477,-495,-512,-524,-524,-515,-503,-490,-478,-469,-465,-462,-461,-460,-460,-462,-467,-472,-475,-471,-465,-460,-456,-452,-447,-441,-436,-432,-428,-425,-424,-424,-425,-427,-429,-433,-435,-437,-438,-438,-439,-439,-439,-440,-441,-442,-442,-441,-441,-441,-442,-443,-444,-446,-448,-451,-453,-455,-456,-457,-457,-458,-459,-459,-460,-460,-461,-463,-465,-468,-472,-476,-480,-482,-484,-495,-516,-535,-549,-561,-576,-603,-643,-690,-730,-764,-800,-839,-879,-910,-931,-941,-948,-957,-968,-985,-1008,-1032,-1057,-1082,-1107,-1129,-1150,-1169,-1186,-1203,-1219,-1233,-1242,-1253,-1269,-1292,-1316,-1340,-1366,-1399,-1438,-1476,-1506,-1529,-1549,-1567,-1583,-1596,-1607,-1617,-1625,-1634,-1644,-1654,-1665,-1675,-1684,-1693,-1701,-1706,-1710,-1715,-1721,-1726,-1730,-1735,-1739,-1741,-1743,-1746,-1749,-1752,-1755,-1759,-1760,-1761,-1761,-1763,-1766,-1768,-1771,-1775,-1779,-1784,-1788,-1791,-1795,-1799,-1802,-1804,-1806,-1810,-1813,-1814,-1815,-1816,-1814,-1811,-1807,-1804,-1799,-1790,-1775,-1760,-1746,-1733,-1725,-1721,-1720,-1723,-1729,-1738,-1748,-1762,-1779,-1796,-1811,-1823,-1836,-1851,-1867,-1885,-1901,-1915,-1925,-1938,-1950,-1960,-1966,-1971,-1977,-1985,-1993,-2000,-2006,-2013,-2020,-2028,-2036,-2044,-2052,-2062,-2071,-2078,-2085,-2090,-2098,-2107,-2116,-2125,-2132,-2138,-2143,-2148,-2154,-2159,-2162,-2163,-2163,-2162,-2161,-2157,-2147,-2128,-2098,-2061,-2025,-1999,-1979,-1976,-1989,-2001,-2005,-2007,-2013,-2015,-2016,-2019,-2025,-2027,-2025,-2021,-2016,-2010,-2003,-1996,-1981,-1959,-1930,-1896,-1863,-1834,-1813,-1797,-1790,-1789,-1795,-1804,-1814,-1824,-1836,-1847,-1857,-1866,-1875,-1883,-1890,-1898,-1905,-1913,-1921,-1929,-1936,-1942,-1950,-1958
-182,-182,-183,-184,-184,-185,-186,-187,-188,-189,-190,-191,-192,-193,-194,-194,-194,-194,-193,-193,-193,-193,-193,-194,-195,-198,-201,-204,-204,-203,-203,-204,-206,-207,-208,-208,-209,-209,-210,-210,-211,-213,-214,-215,-215,-215,-215,-216,-216,-217,-218,-218,-218,-218,-218,-219,-220,-221,-222,-222,-222,-223,-225,-227,-228,-229,-230,-231,-233,-234,-235,-236,-237,-237,-237,-237,-238,-239,-240,-241,-242,-243,-243,-243,-243,-244,-245,-246,-246,-246,-245,-245,-245,-247,-248,-248,-248,-248,-249,-251,-253,-254,-254,-254,-255,-256,-257,-257,-258,-259,-260,-261,-262,-263,-264,-265,-266,-266,-266,-267,-268,-269,-269,-270,-270,-271,-271,-271,-271,-271,-271,-272,-273,-273,-273,-274,-275,-276,-276,-276,-277,-277,-278,-278,-279,-281,-282,-282,-283,-283,-284,-284,-284,-285,-285,-286,-287,-289,-290,-291,-292,-293,-293,-292,-291,-291,-291,-292,-292,-292,-292,-293,-293,-294,-294,-296,-298,-302,-305,-306,-307,-307,-308,-310,-312,-313,-315,-316,-317,-318,-318,-320,-321,-323,-324,-326,-328,-330,-331,-333,-334,-334,-336,-339,-344,-347,-349,-352,-354,-355,-355,-356,-357,-358,-359,-359,-361,-363,-366,-369,-373,-376,-379,-382,-388,-395,-399,-398,-397,-397,-398,-400,-402,-404,-407,-411,-414,-417,-420,-423,-426,-427,-427,-428,-429,-431,-434,-436,-438,-439,-441,-444,-447,-452,-459,-468,-478,-489,-498,-505,-511,-519,-535,-559,-581,-593,-594,-585,-573,-558,-549,-543,-537,-537,-543,-543,-537,-532,-536,-542,-538,-529,-524,-530,-539,-544,-537,-523,-511,-503,-490,-473,-462,-456,-456,-456,-457,-457,-456,-455,-453,-451,-448,-447,-445,-444,-443,-443,-443,-444,-445,-446,-448,-449,-451,-452,-454,-455,-456,-457,-458,-459,-459,-459,-460,-460,-461,-462,-463,-466,-469,-472,-476,-478,-479,-474,-468,-474,-495,-517,-531,-543,-556,-572,-595,-625,-656,-686,-719,-753,-784,-804,-817,-830,-846,-864,-888,-917,-948,-978,-1008,-1033,-1053,-1070,-1083,-1096,-1111,-1131,-1153,-1178,-1202,-1224,-1243,-1265,-1293,-1326,-1361,-1397,-1436,-1473,-1502,-1523,-1538,-1547,-1552,-1560,-1570,-1582,-1595,-1605,-1614,-1623,-1632,-1643,-1655,-1670,-1685,-1698,-1708,-1718,-1727,-1734,-1740,-1745,-1749,-1754,-1759,-1763,-1766,-1770,-1773,-1777,-1780,-1782,-1783,-1785,-1787,-1789,-1791,-1794,-1799,-1802,-1805,-1808,-1813,-1819,-1825,-1829,-1831,-1832,-1833,-1834,-1835,-1837,-1839,-1840,-1841,-1840,-1838,-1836,-1835,-1830,-1823,-1816,-1812,-1806,-1798,-1793,-1788,-1784,-1784,-1788,-1793,-1801,-1813,-1825,-1837,-1851,-1865,-1878,-1889,-1898,-1907,-1915,-1922,-1928,-1935,-1941,-1946,-1954,-1964,-1976,-1985,-1992,-1998,-2006,-2014,-2023,-2032,-2043,-2056,-2069,-2081,-2089,-2098,-2106,-2114,-2123,-2131,-2140,-2148,-2158,-2167,-2173,-2178,-2181,-2184,-2185,-2185,-2185,-2183,-2178,-2167,-2149,-2123,-2089,-2060,-2054,-2071,-2084,-2088,-2084,-2078,-2071,-2069,-2075,-2081,-2081,-2076,-2070,-2063,-2057,-2052,-2046,-2038,-2026,-2010,-1986,-1959,-1932,-1906,-1873,-1836,-1807,-1796,-1801,-1811,-1819,-1826,-1834,-1845,-1857,-1867,-1876,-1885,-1895,-1904,-1914,-1923,-1932,-1941,-1948,-1955,-1960
-185,-185,-186,-187,-188,-189,-190,-191,-191,-192,-193,-194,-194,-195,-196,-197,-197,-198,-198,-198,-199,-199,-199,-200,-200,-202,-204,-205,-205,-206,-206,-206,-208,-209,-211,-212,-213,-213,-214,-215,-215,-216,-216,-216,-217,-217,-218,-218,-219,-220,-220,-220,-220,-220,-220,-221,-223,-224,-225,-225,-227,-229,-230,-231,-231,-232,-234,-235,-236,-237,-237,-237,-238,-239,-240,-240,-241,-242,-242,-243,-243,-244,-244,-245,-245,-245,-245,-246,-248,-249,-249,-248,-248,-249,-251,-252,-254,-255,-256,-257,-257,-258,-258,-258,-259,-260,-261,-262,-263,-264,-265,-266,-266,-266,-267,-267,-268,-268,-269,-270,-271,-272,-273,-273,-274,-274,-274,-274,-274,-274,-274,-274,-274,-275,-275,-277,-278,-278,-278,-278,-279,-280,-281,-281,-282,-283,-283,-284,-285,-287,-287,-288,-288,-288,-288,-288,-289,-290,-291,-293,-294,-296,-297,-298,-299,-299,-299,-298,-297,-297,-296,-297,-299,-301,-304,-307,-308,-309,-309,-310,-310,-311,-312,-315,-317,-320,-321,-322,-322,-321,-321,-323,-327,-330,-333,-334,-335,-336,-336,-336,-337,-338,-340,-342,-346,-349,-352,-355,-357,-358,-359,-362,-364,-364,-365,-366,-369,-372,-376,-380,-383,-386,-388,-394,-400,-406,-408,-408,-408,-410,-412,-414,-417,-419,-423,-427,-430,-433,-437,-440,-442,-443,-443,-444,-445,-447,-448,-449,-450,-451,-455,-461,-469,-480,-493,-507,-524,-542,-561,-579,-595,-604,-613,-623,-643,-663,-674,-674,-668,-658,-653,-658,-657,-649,-636,-625,-621,-629,-641,-645,-634,-617,-613,-628,-650,-659,-654,-639,-625,-607,-584,-558,-541,-532,-528,-522,-513,-505,-498,-492,-484,-477,-471,-464,-458,-454,-452,-451,-451,-452,-453,-455,-456,-456,-457,-457,-458,-459,-460,-461,-462,-463,-463,-465,-465,-466,-468,-472,-479,-488,-497,-502,-503,-500,-494,-484,-479,-487,-504,-518,-526,-533,-544,-558,-573,-591,-615,-642,-667,-692,-714,-733,-757,-785,-814,-843,-874,-906,-935,-962,-988,-1014,-1036,-1060,-1079,-1094,-1106,-1123,-1145,-1167,-1189,-1211,-1235,-1264,-1295,-1324,-1349,-1376,-1403,-1428,-1450,-1469,-1483,-1490,-1498,-1508,-1521,-1537,-1552,-1564,-1573,-1584,-1599,-1616,-1638,-1659,-1678,-1694,-1704,-1711,-1718,-1725,-1732,-1738,-1744,-1750,-1758,-1766,-1772,-1778,-1782,-1787,-1791,-1794,-1797,-1801,-1804,-1808,-1812,-1818,-1823,-1828,-1832,-1836,-1840,-1844,-1847,-1850,-1852,-1853,-1854,-1855,-1856,-1857,-1858,-1858,-1860,-1861,-1863,-1863,-1862,-1861,-1859,-1861,-1867,-1875,-1875,-1867,-1854,-1842,-1838,-1840,-1840,-1835,-1833,-1832,-1834,-1840,-1850,-1859,-1867,-1875,-1883,-1891,-1899,-1905,-1910,-1916,-1922,-1929,-1935,-1944,-1954,-1965,-1974,-1982,-1991,-2001,-2011,-2020,-2032,-2045,-2058,-2074,-2090,-2104,-2114,-2123,-2131,-2139,-2148,-2158,-2168,-2176,-2184,-2190,-2195,-2200,-2205,-2208,-2209,-2207,-2202,-2191,-2175,-2149,-2127,-2122,-2130,-2135,-2133,-2128,-2123,-2119,-2117,-2120,-2124,-2122,-2116,-2108,-2101,-2095,-2092,-2088,-2084,-2077,-2065,-2047,-2023,-1997,-1969,-1939,-1906,-1874,-1838,-1807,-1793,-1798,-1812,-1827,-1840,-1851,-1861,-1872,-1883,-1896,-1907,-1916,-1925,-1933,-1941,-1949,-1955,-1961
